596 618 645 663 691 754 880 1000 1177 1190 1122 1099 1125 1163 1200 1200 1178 1143 1118 1100 1028 927 887 860 887 915 901 852 814 718 600 484 624 618 548 660 700 729 756 672 669 631 640 686 690 695 680 632 652 718 700 757 775 712 700 737 711 678 652 669 676 648 627 606 590 560 524 503 475 450 459 473 470 460 469 481 496 495 514 571 530 547 625 703 689 659 675 696 667 700 676 729 794 864 954 1107 1048 1000 900 885 798 795 833 889 978 1121 1033 1200 1266 1433 1700 1745 1600 1594 1800 2000 2076 2091 2161 2206 2200 2213 2231 2200 2229 2234 2133 1991 1995 2088 2186 2310 2291 2269 2273 2274 2287 2296 2289 2363 2400 2405 2393 2400 2298 2233 2200 2100 2096 2141 2117 1900 1800 1771 1756 1747 1740 1713 1674 1542 1559 1607 1610 1648 1652 1635 1603 1598 1595 1674 1680 1536 1349 1555 1845 1959 1900 1900 2037 2065 1900 1795 1789 1796 1800 1921 2200 2130 2077 2000 1862 1786 1769 1600 1356 1254 1183 1170 1400 1607 1616 1635 1580 1475 1409 1121 1200 1262 1100 900 989 800 642 400 326 299 290 354 500 476 484 745 779 938 1020 942 890 727 600 274 223 200 206 212 219 233 245 251 237 221 233 264 322 422 600 741 472 343 275 275 276 287 297 366 571 800 900 1078 1188 1100 845 678 600 600 593 533 468 367 318 288 353 405 386 360 314 268 300 300 268 298 311 235 234 245 254 251 238 223 203 200 192 202 217 219 200 197 182 149 156 171 169 159 152 150 136 137 141 125 117 119 125 125 111 110 112 115 115 113 110 108 133 201 201 138 135 133 132 133 132 132 131 132 132 130 128 123 118 114 118 120 118 115 113 112 112 113 113 114 114 116 124 145 145 141 139 140 142 147 152 158 163 167 168 167 166 164 162 162 161 161 161 159 155 149 143 137 134 134 135 140 145 150 157 163 168 172 176 179 181 182 179 173 159 142 126 114 113 122 132 143 152 151 162 168 194 200 209 220 242 256 261 247 211 213 213 214 215 217 223 229 233 236 240 241 244 250 256 266 271 271 272 270 298 275 289 298 283 273 273 273 273 276 282 315 301 344 350 372 381 383 402 402 380 399 403 424 413 399 417 405 383 395 401 403 409 420 424 430 445 455 479 503 486 478 486 499 501 518 539 542 599 608 600 601 660 700 735 754 751 749 751 751 765 734 710 733 747 760 799 799 783 795 790 801 799 801 792 794 794 775 799 775 785 782 598 618 599 599 599 582 593 601 601 578 599 500 522 601 481 505 498 499 488 501 454 426 401 299 287 299 299 282 308 95 89 45 132 91 104 40 34 31 29 24 24 24 26 29 30 28 24 25 27 28 22 20 21 20 18 17 16 15 15 15 16 11 13 16 8 6 10 8 6 4 2 1 2 -9999 -9999 -9999 -9999 -9999 -9999 -9999 -9999 -9999 -9999 -9999 -9999 -9999 -9999 -9999 -9999 -9999 -9999 -9999 -9999 -9999 -9999 -9999 -9999 -9999 -9999 -9999 -9999 -9999 -9999 -9999 -9999 -9999 -9999 -9999 -9999 -9999 -9999 -9999 -9999 -9999 -9999 -9999 -9999 -9999 -9999 -9999 -9999 -9999 -9999 -9999 -9999 -9999 -9999 -9999 -9999 -9999 -9999 -9999 -9999 -9999
591 595 615 636 656 682 700 807 932 1201 1169 1144 1154 1185 1231 1239 1222 1183 1100 1030 900 886 990 948 897 993 900 845 784 600 500 630 655 637 600 687 680 682 695 684 650 603 599 616 680 690 705 680 654 700 689 700 757 753 725 724 697 689 700 695 700 658 655 634 626 617 577 534 500 494 463 480 501 480 469 492 500 503 495 499 563 609 634 592 682 691 640 632 628 675 700 695 746 823 900 966 1000 930 870 816 812 782 885 971 1076 1185 1224 1223 1261 1300 1500 1611 1561 1536 1628 1845 1976 2060 2186 2200 2204 2260 2300 2202 2200 2205 2155 1994 1969 2000 2134 2260 2286 2262 2278 2256 2262 2257 2256 2280 2302 2353 2390 2388 2342 2200 2179 2100 2046 2058 2036 1930 1841 1788 1764 1730 1698 1688 1660 1623 1587 1531 1558 1578 1589 1601 1615 1629 1604 1600 1682 1634 1343 1360 1500 1742 1813 1800 1909 2004 1971 1805 1797 1797 1799 1800 1805 2000 2100 2041 1890 1877 1843 1719 1300 1200 1182 1200 1292 1541 1667 1672 1687 1670 1500 1279 1057 1018 1037 892 856 819 780 700 450 369 296 272 373 484 500 460 445 733 1050 890 871 818 600 358 254 214 200 195 206 222 232 234 219 214 240 265 289 312 377 531 295 295 275 275 275 279 292 298 328 550 827 976 1168 1024 731 613 535 507 484 540 418 370 330 281 325 376 420 343 292 301 263 328 300 275 365 292 241 220 231 232 230 227 215 200 189 200 203 220 211 204 194 156 146 157 163 161 152 135 125 125 121 116 118 122 127 125 114 111 112 117 118 115 112 116 130 156 200 140 138 136 136 136 135 135 135 136 135 132 129 126 123 118 119 121 118 113 113 113 113 112 113 113 114 113 114 149 141 134 133 137 141 147 154 161 168 174 175 174 173 171 169 168 167 167 166 164 158 152 146 140 136 136 137 141 145 151 157 163 169 173 177 180 183 184 182 176 161 143 126 113 114 122 132 143 150 162 162 177 200 200 210 235 250 261 257 235 210 212 213 214 216 218 222 226 229 236 249 250 255 262 271 269 269 270 271 273 278 274 271 275 275 275 275 275 275 275 276 281 300 337 352 384 377 380 401 400 395 419 403 411 401 421 419 404 395 401 399 421 422 430 433 432 451 465 477 488 499 503 495 505 523 571 599 603 599 664 693 701 728 755 747 751 759 746 746 723 700 700 722 732 744 773 780 792 801 802 792 778 781 798 776 777 775 780 787 873 914 805 701 576 579 566 601 601 593 601 587 595 525 503 502 552 499 499 502 494 463 414 397 400 285 292 183 203 222 304 298 80 94 188 100 99 107 45 38 32 30 25 24 25 28 30 30 27 24 23 25 28 27 20 18 17 17 15 14 14 14 16 16 11 14 16 14 6 6 9 6 4 1 1 1 -9999 -9999 -9999 -9999 -9999 -9999 -9999 -9999 -9999 -9999 -9999 -9999 -9999 -9999 -9999 -9999 -9999 -9999 -9999 -9999 -9999 -9999 -9999 -9999 -9999 -9999 -9999 -9999 -9999 -9999 -9999 -9999 -9999 -9999 -9999 -9999 -9999 -9999 -9999 -9999 -9999 -9999 -9999 -9999 -9999 -9999 -9999 -9999 -9999 -9999 -9999 -9999 -9999 -9999 -9999 -9999 -9999 -9999 -9999 -9999 -9999
621 597 595 616 639 662 683 718 866 900 1200 1215 1226 1230 1283 1292 1233 1190 1167 1046 887 1008 1006 940 964 900 907 845 800 600 500 657 735 700 683 618 650 671 689 669 632 597 591 591 595 643 700 700 695 700 709 700 753 788 767 721 696 684 690 700 700 693 693 685 672 600 542 516 490 465 474 504 528 509 484 493 498 517 541 517 529 541 584 614 700 688 600 597 648 696 700 781 770 800 852 916 911 881 872 809 777 790 916 1041 1146 1247 1265 1252 1269 1316 1437 1492 1497 1500 1617 1750 1885 2027 2122 2133 2200 2221 2253 2202 2204 2220 2188 2058 2055 2000 2000 2171 2249 2250 2240 2242 2300 2253 2243 2227 2264 2360 2500 2392 2290 2200 2256 2202 2059 1938 1902 1900 1900 1796 1773 1747 1723 1700 1638 1569 1514 1521 1519 1535 1556 1574 1603 1654 1700 1634 1655 1651 1526 1271 1329 1485 1651 1743 1884 1897 1953 1891 1802 1797 1805 1825 1802 1801 1929 2080 2010 1800 1837 1767 1445 1241 1176 1142 1247 1400 1623 1662 1686 1701 1616 1400 1240 977 1000 900 867 883 900 845 748 460 361 295 273 439 500 328 324 531 865 926 903 876 771 526 292 247 237 220 197 209 213 216 213 212 244 268 281 285 281 275 275 275 275 275 275 277 283 287 297 386 630 857 1079 941 696 624 589 510 442 447 390 369 335 306 300 347 376 386 290 271 274 262 349 319 335 347 275 244 212 218 216 203 211 207 205 187 208 212 197 200 195 168 146 146 150 144 151 132 121 120 118 117 120 125 128 126 114 111 114 119 121 120 116 120 131 138 141 142 141 141 140 140 140 139 139 139 138 135 131 129 127 123 120 123 124 120 119 119 118 118 117 117 117 115 114 127 114 121 126 132 139 147 155 163 170 176 179 179 178 176 175 173 172 170 168 165 160 154 148 142 139 137 138 142 147 152 158 164 169 174 177 180 181 182 179 172 159 142 125 113 116 123 132 142 149 158 168 201 202 201 227 243 259 252 250 218 210 212 211 214 216 220 225 228 231 237 262 273 274 274 267 269 270 270 273 275 276 275 276 279 286 291 289 289 285 280 276 277 284 296 311 342 364 370 381 402 416 401 413 414 419 421 421 413 415 422 423 423 431 437 442 446 463 486 494 480 499 497 504 555 599 601 601 604 595 612 602 618 653 623 638 627 659 689 699 699 701 706 725 753 792 804 799 801 801 806 801 799 777 776 779 775 793 990 866 901 792 717 601 664 596 529 578 601 599 579 595 577 502 499 499 477 481 402 397 455 401 399 401 264 283 196 181 198 308 199 100 101 101 100 151 97 46 45 37 32 29 26 24 25 27 29 29 28 25 23 23 25 27 25 19 17 16 14 14 14 16 16 14 10 14 16 13 6 6 7 5 4 1 1 1 -9999 -9999 -9999 -9999 -9999 -9999 -9999 -9999 -9999 -9999 -9999 -9999 -9999 -9999 -9999 -9999 -9999 -9999 -9999 -9999 -9999 -9999 -9999 -9999 -9999 -9999 -9999 -9999 -9999 -9999 -9999 -9999 -9999 -9999 -9999 -9999 -9999 -9999 -9999 -9999 -9999 -9999 -9999 -9999 -9999 -9999 -9999 -9999 -9999 -9999 -9999 -9999 -9999 -9999 -9999 -9999 -9999 -9999 -9999 -9999 -9999
635 623 615 610 628 652 672 694 700 800 900 1069 1297 1300 1233 1200 1200 954 895 883 1000 1083 1010 990 980 922 883 811 800 480 714 780 793 768 691 657 627 655 680 668 650 609 597 591 581 588 629 691 670 700 725 752 750 795 795 744 699 693 684 702 711 714 711 702 680 587 531 462 460 523 493 500 535 522 490 476 492 497 511 564 566 585 606 618 589 595 590 659 682 700 731 771 869 900 914 872 814 798 811 781 746 879 1008 1045 1200 1273 1232 1206 1242 1279 1400 1438 1477 1480 1535 1745 1911 2029 2083 2133 2114 2205 2233 2261 2250 2317 2240 2158 2100 1965 2000 2020 2201 2200 2224 2259 2250 2242 2255 2193 2220 2295 2358 2254 2198 2305 2177 2123 2000 1900 1887 1865 1918 1835 1800 1749 1788 1773 1681 1614 1563 1516 1517 1521 1527 1543 1573 1631 1700 1704 1643 1677 1600 1300 1259 1300 1400 1547 1764 1903 1861 1870 1886 1800 1803 1862 1910 1877 1851 1900 2000 1900 1732 1800 1600 1463 1300 1107 1149 1270 1500 1367 1656 1717 1650 1616 1528 1200 975 959 890 876 900 1016 922 671 435 361 291 266 355 293 315 357 652 800 811 800 883 823 500 289 268 239 210 200 196 197 200 198 236 264 267 273 275 275 275 275 275 275 275 278 280 284 292 300 518 748 919 927 742 661 627 529 408 397 381 352 324 300 237 305 348 500 333 338 360 300 261 355 393 383 294 267 242 206 204 198 200 206 196 174 202 201 200 183 179 164 156 150 143 132 136 125 123 122 118 117 120 125 128 127 118 114 116 124 126 124 121 125 133 141 146 145 144 144 144 145 144 144 143 142 139 136 134 132 131 128 124 123 128 125 124 124 124 123 122 121 120 117 113 114 114 121 124 130 137 145 154 163 171 177 181 182 182 181 179 177 174 172 169 165 160 154 148 144 142 140 141 144 148 154 159 165 170 174 176 178 179 178 174 166 154 139 124 113 119 124 132 141 157 163 167 200 208 210 226 253 257 246 229 209 210 211 212 215 218 224 230 232 233 241 271 271 269 266 270 271 270 270 275 273 274 277 281 282 298 296 301 301 301 288 292 295 310 318 298 335 362 374 375 399 401 402 399 401 411 421 423 425 428 430 432 434 436 438 438 444 468 476 508 502 503 506 526 521 496 500 500 529 540 544 586 564 595 595 597 649 650 673 673 690 680 704 724 763 807 805 829 799 801 899 801 776 777 779 779 780 999 1001 899 793 707 624 602 661 701 598 530 572 537 602 592 545 503 499 472 432 428 435 399 399 407 324 321 299 196 180 194 163 208 208 90 80 84 47 47 45 45 39 34 34 31 26 23 24 26 28 28 26 25 20 23 25 26 25 22 20 20 21 21 14 14 13 10 16 16 16 13 6 6 6 4 -9999 -9999 1 1 -9999 -9999 -9999 -9999 -9999 -9999 -9999 -9999 -9999 -9999 -9999 -9999 -9999 -9999 -9999 -9999 -9999 -9999 -9999 -9999 -9999 -9999 -9999 -9999 -9999 -9999 -9999 -9999 -9999 -9999 -9999 -9999 -9999 -9999 -9999 -9999 -9999 -9999 -9999 -9999 -9999 -9999 -9999 -9999 -9999 -9999 -9999 -9999 -9999 -9999 -9999 -9999 -9999 -9999 -9999 -9999 -9999 -9999 -9999 -9999 -9999
646 631 667 688 623 642 660 681 684 700 755 878 936 887 881 879 873 889 881 1025 1129 1075 1085 1032 941 914 851 756 481 732 794 780 800 800 750 685 650 634 665 672 657 640 618 609 598 585 569 594 622 675 672 704 700 727 796 774 743 711 691 703 700 706 713 700 688 618 509 515 533 549 568 591 545 499 496 491 478 490 503 517 522 547 561 555 600 600 663 721 800 822 800 830 895 979 961 890 813 800 763 740 725 900 1007 1044 1094 1227 1237 1169 1284 1259 1311 1418 1438 1430 1477 1645 1877 1959 2000 2066 2020 2129 2217 2263 2242 2350 2250 2181 2087 2000 1931 1971 2100 2200 2206 2250 2287 2273 2200 2180 2191 2226 2300 2252 2184 2100 2066 2040 2011 1941 1794 1789 1800 1865 1797 1788 1746 1747 1765 1663 1560 1525 1512 1509 1517 1518 1541 1587 1636 1714 1692 1700 1596 1475 1211 1250 1280 1371 1600 1720 1816 1783 1840 1900 1815 1863 1975 2087 2021 1796 1800 1905 1734 1600 1600 1400 1100 1096 1081 1090 1183 1334 1674 1700 1646 1633 1568 1267 1116 980 971 892 894 973 1000 935 700 500 313 308 267 314 272 300 415 652 750 748 810 900 851 547 290 263 241 233 221 210 192 200 239 250 253 273 300 275 275 275 275 275 275 280 279 279 287 295 385 600 841 885 725 635 542 476 400 375 353 330 308 276 235 254 287 352 419 277 300 400 311 264 362 375 289 279 259 230 195 193 194 203 177 190 192 190 194 200 192 185 173 162 159 150 125 124 125 126 122 119 117 121 129 129 125 115 118 126 128 128 125 130 140 150 150 149 148 148 148 149 148 148 147 145 142 139 137 136 135 132 128 125 127 129 128 127 127 126 125 124 123 121 119 118 121 121 123 128 135 143 152 162 171 178 183 185 185 184 182 179 176 173 169 164 159 153 148 144 141 140 142 145 149 154 160 165 170 173 175 176 175 173 168 160 149 136 121 113 119 124 132 141 147 154 163 190 208 215 228 238 252 249 214 208 210 210 213 217 220 228 233 234 240 242 248 264 278 276 273 273 273 270 275 274 276 280 280 298 301 301 315 345 299 285 299 289 288 298 351 355 359 370 381 381 382 381 394 407 413 420 418 422 422 425 425 427 429 433 445 440 449 468 464 501 499 481 488 501 521 523 528 542 551 551 556 581 601 601 608 621 656 667 695 701 690 701 701 699 719 801 780 791 788 799 771 755 758 779 806 908 897 874 763 700 666 671 607 699 615 601 580 422 480 490 495 406 425 317 320 400 404 363 337 328 313 308 299 201 158 188 109 204 199 80 106 202 99 49 42 42 40 34 34 36 35 26 24 24 26 27 26 24 22 20 21 25 25 24 23 22 22 21 21 21 15 9 16 17 16 16 14 8 5 5 4 -9999 -9999 -9999 -9999 -9999 -9999 -9999 -9999 -9999 -9999 -9999 -9999 -9999 -9999 -9999 -9999 -9999 -9999 -9999 -9999 -9999 -9999 -9999 -9999 -9999 -9999 -9999 -9999 -9999 -9999 -9999 -9999 -9999 -9999 -9999 -9999 -9999 -9999 -9999 -9999 -9999 -9999 -9999 -9999 -9999 -9999 -9999 -9999 -9999 -9999 -9999 -9999 -9999 -9999 -9999 -9999 -9999 -9999 -9999 -9999 -9999 -9999 -9999 -9999 -9999
672 650 680 840 650 634 644 656 664 684 693 699 769 821 817 823 865 877 1000 1234 1200 1118 1096 1034 980 838 557 485 700 795 842 835 900 787 800 730 677 650 652 674 666 651 635 622 612 606 605 580 590 600 634 652 668 670 750 774 767 746 719 690 687 680 690 703 643 491 540 578 600 620 620 602 576 557 571 533 500 559 490 504 530 560 585 600 607 692 687 760 835 901 794 800 934 990 900 874 838 794 767 739 727 859 900 924 1013 1078 1086 1162 1243 1286 1276 1366 1400 1400 1384 1500 1700 1800 1938 1981 1968 2040 2158 2210 2236 2300 2276 2200 2161 2068 1973 1918 2000 2093 2185 2200 2214 2300 2220 2200 2182 2193 2277 2262 2213 2140 1927 1894 2000 1900 1821 1773 1789 1800 1798 1835 1801 1777 1680 1681 1591 1546 1534 1521 1508 1509 1516 1548 1633 1708 1716 1666 1590 1534 1247 1205 1227 1274 1400 1535 1700 1757 1698 1819 1800 1787 1937 2064 2133 2050 1796 1790 1806 1600 1441 1286 1131 1089 1082 1049 1073 1200 1500 1519 1461 1454 1459 1258 1174 1000 1015 930 883 910 931 1028 946 700 425 375 294 269 251 264 300 449 600 723 671 784 844 800 400 287 272 255 237 214 204 194 200 219 258 288 400 349 275 275 275 300 300 290 274 275 283 292 372 551 586 800 700 595 557 588 540 389 364 342 317 288 239 225 268 322 416 310 291 240 375 256 259 315 273 266 245 251 197 186 187 182 172 200 180 195 197 195 192 194 182 173 165 153 147 141 132 131 122 118 120 125 130 131 127 121 121 127 132 131 130 135 145 152 155 153 151 152 153 154 153 152 151 148 144 143 141 139 138 136 133 129 128 133 131 130 130 129 128 127 124 123 120 116 121 121 122 126 131 140 150 161 171 179 185 188 188 187 184 180 177 172 168 163 157 152 147 143 141 142 143 146 150 155 160 165 169 172 173 173 172 168 161 152 142 130 114 113 119 124 132 142 149 159 174 199 211 216 219 206 205 211 207 210 215 215 217 225 238 239 244 251 254 253 264 267 294 275 276 275 275 275 276 279 282 279 292 296 334 344 369 392 349 308 344 351 352 351 340 351 351 365 371 370 371 375 380 399 400 404 405 413 417 420 422 427 433 439 439 442 448 452 504 500 500 505 501 519 523 531 537 548 551 555 562 579 599 595 602 623 679 701 701 701 681 701 688 670 698 801 801 775 779 777 770 721 729 762 801 793 771 755 749 701 657 602 635 601 608 601 597 501 304 304 304 361 301 301 277 331 393 394 285 298 281 240 299 208 183 199 104 104 199 49 56 99 52 48 39 39 37 35 35 39 39 29 23 24 25 25 24 20 18 19 22 25 25 22 20 22 22 20 21 21 21 16 12 7 6 10 7 10 4 4 1 -9999 -9999 -9999 -9999 -9999 -9999 -9999 -9999 -9999 -9999 -9999 -9999 -9999 -9999 -9999 -9999 -9999 -9999 -9999 -9999 -9999 -9999 -9999 -9999 -9999 -9999 -9999 -9999 -9999 -9999 -9999 -9999 -9999 -9999 -9999 -9999 -9999 -9999 -9999 -9999 -9999 -9999 -9999 -9999 -9999 -9999 -9999 -9999 -9999 -9999 -9999 -9999 -9999 -9999 -9999 -9999 -9999 -9999 -9999 -9999 -9999 -9999 -9999 -9999 -9999
685 675 700 716 710 665 660 670 673 674 691 743 741 745 791 828 859 896 1227 1229 1216 1177 1043 800 800 581 481 498 900 903 889 911 900 860 790 752 698 674 648 666 676 661 645 635 625 620 613 605 582 561 578 600 616 631 691 754 782 772 750 721 709 686 635 500 533 632 646 705 701 665 652 629 593 580 571 583 520 510 490 492 506 526 575 603 638 671 700 700 788 758 770 795 925 1008 895 794 800 767 754 735 708 772 808 863 1050 1005 999 1082 1167 1192 1200 1305 1319 1352 1359 1389 1564 1711 1791 1900 1961 1973 2142 2203 2207 2250 2240 2224 2185 2089 2017 1943 1939 1981 2065 2169 2187 2180 2212 2214 2164 2150 2194 2228 2213 2124 1897 1878 1882 1900 1845 1776 1758 1771 1793 1789 1782 1770 1731 1681 1582 1560 1560 1536 1515 1504 1506 1515 1620 1725 1740 1666 1582 1615 1555 1243 1193 1236 1263 1335 1500 1668 1790 1653 1750 1716 1800 2000 2085 2100 1948 1773 1809 1670 1435 1300 1300 1100 1136 1081 1020 1078 1300 1082 1300 1385 1440 1300 1200 1077 983 1024 893 890 914 1029 1000 900 585 442 330 312 282 262 244 262 425 626 650 700 718 831 700 354 285 266 251 225 200 200 202 250 271 300 600 518 286 275 358 516 414 296 276 268 277 287 300 548 569 600 700 590 580 617 585 396 381 353 336 300 231 217 258 300 367 317 253 217 267 317 202 223 200 255 233 204 207 189 178 176 167 173 200 203 196 188 181 200 192 183 174 164 156 146 139 129 121 118 122 125 126 134 128 124 124 129 135 135 135 136 150 155 160 157 156 157 158 159 158 156 154 150 148 146 144 142 141 139 136 131 131 135 134 133 132 131 130 129 125 123 121 120 120 119 120 123 127 135 147 160 171 181 187 190 191 189 185 181 176 172 166 161 156 150 146 142 142 143 144 147 150 155 159 164 168 170 172 171 169 163 155 145 132 120 114 114 119 124 131 141 158 163 201 205 204 202 202 205 248 230 240 251 237 217 220 253 255 253 256 267 268 259 248 267 273 278 296 276 276 283 278 287 286 280 315 380 401 399 395 401 401 376 379 384 373 367 359 351 356 361 360 369 370 373 393 401 400 401 404 413 420 423 424 428 442 449 447 449 456 457 459 461 499 499 505 508 520 529 534 538 548 552 561 578 590 571 604 634 681 687 699 699 679 672 670 673 677 804 808 781 801 776 779 695 721 698 697 721 732 731 701 686 633 597 630 601 601 597 537 501 327 322 265 307 305 303 291 206 301 259 255 296 204 180 179 180 204 204 201 99 57 45 43 39 39 43 40 37 35 34 33 39 39 29 25 23 24 24 22 20 19 21 21 24 24 20 18 21 21 20 19 21 21 21 19 18 18 6 5 4 6 3 -9999 -9999 -9999 -9999 -9999 -9999 -9999 -9999 -9999 -9999 -9999 -9999 -9999 -9999 -9999 -9999 -9999 -9999 -9999 -9999 -9999 -9999 -9999 -9999 -9999 -9999 -9999 -9999 -9999 -9999 -9999 -9999 -9999 -9999 -9999 -9999 -9999 -9999 -9999 -9999 -9999 -9999 -9999 -9999 -9999 -9999 -9999 -9999 -9999 -9999 -9999 -9999 -9999 -9999 -9999 -9999 -9999 -9999 -9999 -9999 -9999 -9999 -9999 -9999 -9999 -9999
700 700 700 700 672 680 678 683 776 754 689 700 836 788 833 890 893 980 1300 1308 1272 1225 858 600 544 492 492 585 878 966 933 958 937 905 811 759 733 697 673 668 682 668 654 646 638 629 623 613 603 569 546 569 587 584 629 738 733 800 773 763 750 708 674 616 600 700 700 721 722 706 687 659 637 606 580 560 544 520 499 498 508 535 569 590 640 638 682 740 689 692 720 813 786 898 892 767 791 820 800 789 695 753 841 1008 981 979 981 1010 1111 1141 1152 1214 1276 1305 1329 1362 1440 1554 1648 1795 1872 1941 2137 2201 2263 2165 2273 2235 2214 2175 2100 1948 1900 1935 2000 2042 2123 2125 2162 2183 2200 2154 2192 2213 2175 2133 1885 1892 1848 1874 1800 1788 1750 1733 1753 1733 1700 1696 1700 1611 1591 1567 1587 1550 1535 1522 1499 1504 1556 1697 1709 1706 1608 1633 1730 1550 1240 1180 1200 1223 1300 1473 1600 1642 1615 1680 1689 1900 1937 1900 1962 1879 1837 1684 1487 1410 1268 1250 1088 1042 1028 992 988 1005 1124 1308 1338 1342 1243 1100 1000 1040 935 897 884 901 900 937 823 700 400 341 288 259 325 400 262 400 600 672 698 695 763 455 292 272 251 234 219 188 187 240 276 335 622 500 369 300 561 700 500 300 279 269 270 283 298 448 497 680 675 586 594 667 585 424 385 390 362 308 266 250 266 294 319 303 199 199 202 324 200 197 208 216 230 197 224 191 176 170 165 161 193 200 189 176 170 180 185 174 168 159 150 145 140 132 124 121 119 119 123 135 135 126 125 132 137 140 141 141 150 157 163 162 162 162 163 163 162 160 157 154 151 149 147 146 144 141 137 134 133 138 138 135 135 134 130 125 123 120 119 117 117 116 116 120 122 131 144 158 172 184 190 193 193 190 186 181 176 170 165 159 154 149 145 143 143 144 145 147 150 154 158 162 166 169 170 170 167 161 151 139 126 114 114 114 114 122 130 138 149 168 198 201 201 243 248 221 254 265 268 262 251 235 220 252 261 260 266 272 281 292 264 271 289 278 279 276 279 278 289 304 301 399 397 396 399 458 408 408 401 401 401 379 378 372 372 365 362 367 401 364 370 399 399 397 399 401 407 417 423 427 430 438 451 452 459 468 466 464 462 464 500 494 519 524 530 530 533 545 551 551 553 552 555 569 599 630 666 670 672 674 666 664 665 672 697 799 789 779 799 775 801 802 752 704 709 739 739 698 681 601 604 608 598 602 573 476 466 385 293 204 324 262 278 299 288 183 222 188 190 277 201 197 195 196 199 197 134 103 99 54 43 39 34 37 42 39 36 35 35 36 33 30 25 22 21 21 21 19 19 21 21 21 23 20 16 19 20 20 18 17 21 21 21 19 19 16 5 3 4 4 -9999 -9999 -9999 -9999 -9999 -9999 -9999 -9999 -9999 -9999 -9999 -9999 -9999 -9999 -9999 -9999 -9999 -9999 -9999 -9999 -9999 -9999 -9999 -9999 -9999 -9999 -9999 -9999 -9999 -9999 -9999 -9999 -9999 -9999 -9999 -9999 -9999 -9999 -9999 -9999 -9999 -9999 -9999 -9999 -9999 -9999 -9999 -9999 -9999 -9999 -9999 -9999 -9999 -9999 -9999 -9999 -9999 -9999 -9999 -9999 -9999 -9999 -9999 -9999 -9999 -9999
684 685 700 671 674 679 700 745 831 835 773 738 834 822 883 936 1000 1246 1402 1400 1336 1200 800 600 517 485 497 585 904 986 1000 996 990 938 828 784 800 751 693 684 691 676 664 658 649 640 631 620 609 594 567 539 561 600 593 700 676 719 772 790 782 758 702 485 622 700 722 740 756 745 737 712 673 637 592 573 561 536 523 500 513 546 583 617 597 636 675 676 656 720 700 721 697 791 794 745 760 826 873 753 695 750 883 947 942 959 944 942 1018 1100 1094 1113 1229 1259 1296 1324 1378 1454 1500 1737 1883 2048 2100 2132 2165 2100 2200 2226 2227 2200 2071 2022 1894 1911 1900 1900 2024 2067 2097 2111 2144 2164 2150 2100 2182 1957 1928 1910 1802 1806 1900 1818 1771 1740 1706 1700 1700 1693 1671 1663 1600 1559 1553 1546 1536 1525 1500 1498 1509 1600 1694 1703 1664 1664 1756 1775 1635 1344 1196 1168 1192 1245 1300 1440 1500 1537 1615 1700 1867 1849 1900 1800 1900 1635 1423 1386 1400 1193 1184 1100 1079 1033 966 1000 1035 1200 1275 1230 1119 1000 858 847 859 885 883 900 895 869 831 801 600 365 283 286 317 558 263 244 400 623 676 619 700 600 295 278 264 251 225 211 190 244 291 500 602 383 347 300 570 682 564 400 284 269 264 280 296 490 500 647 572 578 638 683 568 430 393 430 378 307 282 250 274 294 274 241 198 197 196 249 251 198 194 209 199 202 206 191 177 168 163 160 175 206 190 172 155 159 168 163 159 154 145 137 135 134 128 123 120 122 123 131 138 134 133 135 139 144 146 145 149 158 166 167 166 166 166 167 165 163 160 157 155 153 151 149 146 142 138 135 137 143 139 138 136 134 131 127 123 120 117 118 117 117 116 120 117 126 141 158 174 187 194 196 194 191 186 180 174 168 163 157 153 149 146 144 144 144 146 147 150 153 157 160 164 167 169 169 166 160 150 137 124 114 114 115 115 125 132 139 149 150 165 231 252 262 252 239 269 285 281 272 261 247 224 248 261 267 282 277 280 302 263 301 277 279 278 284 301 275 281 333 383 380 391 399 409 453 468 426 391 381 401 380 375 396 377 399 392 402 421 399 376 399 380 390 398 403 418 425 438 438 442 451 457 460 472 502 479 480 486 478 499 501 517 528 538 548 540 539 551 551 547 550 561 599 613 644 655 661 662 660 656 659 662 680 776 799 799 779 795 778 779 767 697 701 716 704 702 598 622 606 601 497 499 437 504 444 474 403 303 214 283 215 297 271 199 198 202 163 198 201 187 204 199 201 199 152 89 80 101 47 41 37 33 35 39 39 38 37 35 35 34 32 31 30 20 19 20 17 18 19 18 19 21 19 15 16 17 18 17 15 21 21 21 19 18 17 11 5 4 1 -9999 -9999 -9999 -9999 -9999 -9999 -9999 -9999 -9999 -9999 -9999 -9999 -9999 -9999 -9999 -9999 -9999 -9999 -9999 -9999 -9999 -9999 -9999 -9999 -9999 -9999 -9999 -9999 -9999 -9999 -9999 -9999 -9999 -9999 -9999 -9999 -9999 -9999 -9999 -9999 -9999 -9999 -9999 -9999 -9999 -9999 -9999 -9999 -9999 -9999 -9999 -9999 -9999 -9999 -9999 -9999 -9999 -9999 -9999 -9999 -9999 -9999 -9999 -9999 -9999 -9999
673 700 678 675 700 678 684 732 879 1021 1000 1000 864 755 900 763 858 1023 1200 1300 1248 1000 700 583 507 489 512 581 755 945 1022 1000 1000 980 901 854 800 754 678 700 697 685 675 671 660 647 638 626 612 609 586 550 542 563 600 633 698 670 725 763 766 715 500 670 654 703 731 754 765 780 785 736 700 667 609 584 571 556 546 513 524 555 567 572 596 600 611 613 664 675 663 691 765 860 839 756 736 792 794 760 681 766 862 891 914 935 928 893 1000 1064 1067 1080 1100 1250 1266 1282 1295 1335 1430 1654 1830 1977 2077 2034 2026 2080 2117 2220 2280 2211 2133 2044 1934 1891 1894 1863 1931 1980 2000 2100 2096 2105 2078 2102 2000 1800 1870 1900 1760 1800 1800 1789 1752 1714 1693 1678 1666 1661 1630 1647 1615 1564 1527 1525 1533 1520 1499 1509 1496 1505 1577 1622 1641 1638 1678 1749 1781 1716 1500 1223 1175 1194 1211 1238 1291 1324 1342 1500 1677 1677 1831 1902 1684 1549 1380 1300 1302 1341 1223 1095 1069 1040 1011 994 1100 1000 1169 929 900 895 800 795 795 845 1000 932 903 894 821 691 600 545 300 327 276 368 300 247 258 337 640 648 533 723 345 283 264 242 217 207 190 243 335 664 516 311 296 293 356 533 551 366 285 265 264 277 289 349 538 600 547 585 700 674 562 500 415 560 394 349 324 248 293 337 293 222 198 196 191 196 234 209 187 194 200 196 195 189 176 167 159 155 167 200 192 168 149 147 152 150 145 141 136 131 129 128 126 123 120 122 122 124 136 139 138 139 142 146 150 152 153 160 170 171 170 171 171 170 169 166 164 162 160 157 154 151 147 143 140 143 146 145 142 139 136 133 131 127 124 119 118 118 117 117 118 117 117 125 139 157 176 190 197 198 195 190 184 178 172 166 160 155 151 148 146 145 145 145 146 148 150 152 155 158 162 165 167 168 167 162 152 134 114 115 115 115 118 128 137 149 149 150 227 251 261 271 254 238 272 310 285 277 266 242 229 248 257 295 297 260 292 278 280 303 303 279 281 281 302 297 298 401 453 458 397 435 381 380 390 380 380 452 405 380 375 383 402 401 414 420 448 405 401 401 380 391 407 418 434 454 454 451 453 455 465 472 477 486 495 499 501 501 507 520 531 533 539 549 551 556 550 554 559 555 596 606 615 627 649 651 649 651 651 649 654 672 708 777 776 759 747 746 708 699 699 704 703 674 615 622 599 550 541 500 445 401 384 399 396 355 293 279 201 197 247 192 199 151 191 100 191 231 217 201 201 201 199 95 96 80 101 43 46 35 34 31 34 34 36 37 36 35 34 33 32 30 26 20 18 17 17 17 16 18 20 20 15 10 11 14 16 14 19 21 19 18 16 16 12 6 4 -9999 -9999 -9999 -9999 -9999 -9999 -9999 -9999 -9999 -9999 -9999 -9999 -9999 -9999 -9999 -9999 -9999 -9999 -9999 -9999 -9999 -9999 -9999 -9999 -9999 -9999 -9999 -9999 -9999 -9999 -9999 -9999 -9999 -9999 -9999 -9999 -9999 -9999 -9999 -9999 -9999 -9999 -9999 -9999 -9999 -9999 -9999 -9999 -9999 -9999 -9999 -9999 -9999 -9999 -9999 -9999 -9999 -9999 -9999 -9999 -9999 -9999 -9999 -9999 -9999 -9999 -9999
672 677 695 713 694 683 700 845 957 886 900 934 752 669 699 692 756 891 843 900 829 744 598 600 491 498 524 600 654 900 1049 1033 1010 950 944 900 827 700 703 700 711 695 684 678 668 657 646 636 629 619 601 575 550 522 550 596 670 661 700 714 501 491 600 707 683 700 725 724 730 794 799 783 713 691 628 594 582 571 558 534 518 554 601 560 577 587 597 608 615 622 665 700 830 1100 866 743 700 760 793 700 681 810 823 876 900 915 917 879 980 1026 1049 1072 1093 1217 1237 1266 1280 1315 1468 1572 1665 1852 2000 1967 1983 1993 2000 2122 2201 2200 2159 2100 2041 1988 1946 1883 1881 1914 2000 2041 2037 2100 2082 2080 1964 1688 1912 1900 1773 1787 1787 1784 1758 1744 1693 1669 1638 1610 1600 1596 1579 1600 1558 1523 1500 1519 1499 1499 1505 1500 1500 1520 1601 1611 1701 1736 1768 1795 1757 1500 1249 1181 1180 1248 1217 1200 1198 1275 1376 1600 1768 1800 1741 1600 1371 1263 1244 1312 1189 1200 1089 1113 1087 1112 942 900 860 894 898 1100 1100 892 775 800 785 930 1000 795 802 700 650 619 500 373 288 273 330 262 232 238 322 553 464 565 550 286 253 231 217 198 190 230 300 638 435 331 362 285 292 431 579 400 278 257 257 267 278 317 431 495 479 518 597 600 500 494 412 500 500 356 400 282 398 389 300 236 215 193 186 190 196 198 187 186 188 189 185 183 176 166 156 150 192 200 197 186 153 139 139 137 132 126 124 124 123 123 122 121 121 122 122 124 136 200 141 141 144 147 154 160 159 167 175 175 174 175 175 173 170 167 165 164 162 160 156 152 148 143 146 150 150 145 142 139 137 134 130 127 123 121 120 120 118 117 117 117 117 123 136 155 176 193 199 197 193 187 181 175 169 163 157 153 150 147 146 145 145 146 147 148 149 151 153 156 159 162 165 168 168 166 159 142 114 115 116 117 120 126 142 160 146 199 252 263 269 265 253 239 260 282 289 278 267 239 236 243 252 279 302 286 262 279 301 295 297 408 281 285 299 295 391 399 401 399 398 467 479 395 399 401 380 402 499 436 395 401 402 399 420 441 441 423 380 375 401 403 423 439 451 456 454 455 456 464 491 475 503 489 499 504 506 520 523 529 533 538 540 540 547 558 572 601 601 584 594 608 617 624 631 632 638 654 653 651 650 665 680 772 718 723 702 699 706 696 699 699 652 621 600 618 599 500 494 496 478 396 394 346 296 280 264 235 188 176 254 245 164 150 99 186 190 268 201 200 199 201 106 198 45 73 49 47 40 38 37 31 30 30 32 35 35 34 33 32 30 27 26 23 17 16 15 14 15 17 20 14 12 10 7 12 14 11 18 19 18 16 14 10 5 3 3 -9999 -9999 -9999 -9999 -9999 -9999 -9999 -9999 -9999 -9999 -9999 -9999 -9999 -9999 -9999 -9999 -9999 -9999 -9999 -9999 -9999 -9999 -9999 -9999 -9999 -9999 -9999 -9999 -9999 -9999 -9999 -9999 -9999 -9999 -9999 -9999 -9999 -9999 -9999 -9999 -9999 -9999 -9999 -9999 -9999 -9999 -9999 -9999 -9999 -9999 -9999 -9999 -9999 -9999 -9999 -9999 -9999 -9999 -9999 -9999 -9999 -9999 -9999 -9999 -9999 -9999 -9999
695 700 751 834 900 714 683 700 800 786 700 767 790 685 596 745 893 789 747 800 600 587 581 527 495 499 546 596 670 900 1080 1069 1031 1012 972 900 800 697 727 739 696 692 689 681 675 664 656 648 644 635 622 621 616 592 530 540 538 550 495 500 700 752 741 717 674 692 700 703 700 750 793 800 754 686 646 606 590 582 568 552 518 533 540 550 557 569 584 600 605 608 653 687 772 823 773 750 682 740 740 693 700 736 770 783 832 904 886 832 900 988 1038 1080 1124 1150 1262 1263 1300 1320 1399 1513 1600 1786 1865 1900 1900 1900 1892 1989 2076 2150 2095 2100 2050 2100 2013 1886 1883 1885 1931 1986 2020 2045 2060 1985 1907 1675 1783 1806 1750 1744 1776 1765 1784 1742 1731 1700 1689 1632 1590 1576 1565 1564 1568 1541 1499 1500 1501 1496 1505 1505 1492 1507 1500 1572 1652 1761 1785 1794 1828 1735 1400 1227 1148 1200 1195 1172 1204 1205 1200 1341 1500 1500 1578 1555 1464 1257 1171 1185 1250 1151 1174 1168 1100 1094 1112 1115 1031 736 1033 1112 1113 974 897 789 750 776 875 915 753 700 648 587 593 552 344 292 278 267 254 236 247 326 600 400 390 296 259 200 200 196 188 210 284 395 550 502 450 293 281 337 600 359 271 250 248 255 277 314 379 478 453 496 600 488 400 482 391 400 600 375 600 323 295 405 334 200 201 191 184 181 186 185 183 181 183 185 182 179 176 165 150 148 190 195 204 193 141 126 127 125 124 124 124 124 123 122 123 123 121 122 123 127 135 141 144 144 178 146 159 169 166 174 179 177 177 176 174 172 172 169 166 161 160 160 155 151 147 150 151 154 151 145 140 138 136 133 130 128 125 123 121 119 119 118 117 117 117 118 129 149 172 192 195 192 187 182 176 170 165 160 155 151 149 147 146 146 146 146 147 148 149 150 151 153 155 159 162 165 168 169 167 157 115 116 117 119 123 131 147 168 186 197 249 254 252 251 246 244 260 274 291 279 261 238 240 247 250 301 271 273 270 287 301 373 282 301 287 280 284 301 380 395 392 398 395 423 407 382 376 382 401 380 449 474 396 380 380 400 424 432 416 401 399 399 413 422 445 451 451 453 456 458 461 471 479 508 480 501 508 522 522 526 533 535 538 541 545 545 579 571 584 601 602 601 604 611 619 626 631 631 630 649 649 649 655 660 673 790 725 721 721 721 719 701 690 682 627 604 619 599 501 501 395 473 405 420 379 373 300 403 413 345 285 199 172 228 163 95 101 187 195 192 201 188 160 106 102 101 45 48 45 45 46 46 45 33 27 28 30 34 33 33 32 29 24 20 20 21 21 18 16 12 15 17 19 16 10 4 7 11 11 10 16 17 16 14 10 5 3 3 -9999 -9999 -9999 -9999 -9999 -9999 -9999 -9999 -9999 -9999 -9999 -9999 -9999 -9999 -9999 -9999 -9999 -9999 -9999 -9999 -9999 -9999 -9999 -9999 -9999 -9999 -9999 -9999 -9999 -9999 -9999 -9999 -9999 -9999 -9999 -9999 -9999 -9999 -9999 -9999 -9999 -9999 -9999 -9999 -9999 -9999 -9999 -9999 -9999 -9999 -9999 -9999 -9999 -9999 -9999 -9999 -9999 -9999 -9999 -9999 -9999 -9999 -9999 -9999 -9999 -9999 -9999 -9999
681 695 758 1000 1000 800 711 725 846 700 692 782 900 738 600 625 730 700 700 655 579 544 528 498 498 526 565 622 653 800 1104 1109 1084 1047 1000 925 834 698 780 764 732 710 695 686 679 670 665 658 655 645 618 598 590 600 569 538 511 490 494 600 670 707 732 708 670 658 665 674 674 700 757 782 740 692 667 644 617 598 581 566 553 539 529 539 545 552 571 582 593 600 633 670 700 712 699 697 680 700 697 677 700 695 692 698 743 779 783 795 827 936 1004 1050 1082 1082 1149 1228 1270 1299 1351 1425 1571 1700 1716 1800 1788 1832 1823 1865 1963 2000 2039 2050 2062 2043 2016 1898 1850 1900 1900 1982 2023 2026 2008 1900 1844 1691 1700 1711 1670 1713 1763 1753 1747 1743 1720 1702 1698 1700 1597 1560 1539 1524 1500 1511 1500 1496 1498 1495 1497 1504 1500 1496 1506 1497 1632 1746 1790 1786 1800 1804 1674 1384 1188 1143 1200 1148 1150 1179 1200 1220 1220 1255 1331 1388 1464 1400 1224 1117 1184 1200 1144 1100 1100 1100 1046 1120 1032 841 800 1000 995 928 897 895 795 724 772 800 751 800 682 585 591 584 600 441 293 281 266 246 225 262 452 431 466 500 286 235 200 185 186 207 244 271 266 279 291 278 349 420 614 300 273 253 247 247 254 279 409 500 406 400 461 436 388 404 350 400 606 393 560 500 275 327 343 245 200 191 183 175 176 177 175 177 179 180 179 178 175 162 153 145 147 190 203 192 137 127 127 125 125 128 129 128 126 123 126 127 124 124 123 127 135 140 145 193 156 160 171 176 173 179 182 180 179 177 175 175 175 175 167 162 158 155 152 152 154 155 156 154 150 145 137 136 135 132 129 126 123 120 119 118 117 117 117 118 118 118 123 138 158 175 181 180 177 174 169 165 161 157 153 150 149 148 147 147 147 147 148 149 149 150 150 151 152 154 158 161 163 164 159 146 117 115 118 121 127 135 150 168 168 206 233 249 239 239 239 239 260 276 284 283 267 243 247 250 265 298 302 277 285 299 299 301 283 291 344 408 295 399 401 399 401 401 432 429 446 400 401 380 397 401 400 401 401 401 398 401 399 399 399 401 399 407 425 433 449 449 449 453 460 465 468 476 475 484 489 502 521 526 531 537 540 543 543 548 551 550 560 569 581 599 602 611 615 619 621 628 637 641 649 647 624 627 657 671 782 802 799 718 700 718 686 703 638 635 619 602 513 499 502 395 399 401 397 398 394 369 335 373 375 263 196 183 154 185 202 103 104 188 149 86 95 98 101 125 202 95 101 51 46 54 45 62 48 33 27 28 30 32 32 32 31 28 26 18 13 11 13 14 12 11 16 18 18 14 9 1 1 8 6 9 16 16 16 10 4 3 -9999 -9999 -9999 -9999 -9999 -9999 -9999 -9999 -9999 -9999 -9999 -9999 -9999 -9999 -9999 -9999 -9999 -9999 -9999 -9999 -9999 -9999 -9999 -9999 -9999 -9999 -9999 -9999 -9999 -9999 -9999 -9999 -9999 -9999 -9999 -9999 -9999 -9999 -9999 -9999 -9999 -9999 -9999 -9999 -9999 -9999 -9999 -9999 -9999 -9999 -9999 -9999 -9999 -9999 -9999 -9999 -9999 -9999 -9999 -9999 -9999 -9999 -9999 -9999 -9999 -9999 -9999 -9999 -9999 -9999
685 700 798 832 1028 780 699 684 764 700 629 627 718 730 591 592 587 583 580 576 563 511 541 550 548 541 571 609 689 791 1000 1134 1131 1064 971 815 726 790 815 778 740 712 693 700 683 677 675 662 650 632 613 590 573 561 550 534 500 490 490 521 585 589 670 691 653 624 630 636 636 678 716 754 773 744 720 682 671 636 614 600 600 700 550 567 600 600 570 561 580 592 600 600 650 663 670 682 679 690 678 658 648 666 679 693 727 729 800 787 843 900 979 1011 1037 1072 1114 1205 1245 1270 1297 1345 1500 1574 1586 1631 1721 1785 1800 1797 1862 1942 1959 2005 2036 2019 1971 1913 1900 1831 1875 1969 2004 1986 1954 1891 1800 1670 1652 1699 1705 1700 1743 1742 1719 1714 1700 1700 1710 1694 1645 1587 1536 1511 1503 1497 1495 1494 1495 1494 1494 1496 1500 1490 1500 1502 1497 1663 1745 1707 1724 1722 1775 1700 1425 1248 1188 1132 1150 1184 1161 1200 1192 1217 1098 1162 1350 1431 1300 1220 1099 1192 1165 1018 1095 1200 1124 988 1063 1000 866 676 916 936 891 900 800 765 728 671 700 700 600 600 584 600 562 525 469 295 278 248 229 237 287 359 400 466 400 277 255 214 196 183 189 206 204 255 266 281 513 400 800 500 291 269 252 243 246 250 295 400 476 501 390 368 373 350 318 400 575 500 585 500 230 296 300 201 198 189 179 173 166 171 167 173 173 175 176 175 173 163 155 151 143 155 190 189 132 130 131 129 125 135 135 134 127 124 132 139 138 131 124 127 135 139 145 204 179 200 189 181 182 196 184 182 180 178 177 176 175 170 166 162 158 157 158 159 161 161 158 153 148 142 136 133 131 131 127 124 122 120 118 117 117 117 118 118 119 119 119 128 142 155 163 165 165 164 162 159 157 154 152 150 149 149 148 148 148 148 149 150 150 150 149 149 149 150 152 154 156 154 149 137 120 115 119 124 130 139 152 168 175 208 226 232 234 237 238 239 245 267 279 282 276 264 259 260 261 261 299 279 280 277 288 285 301 356 346 390 376 348 401 401 381 399 404 420 452 401 401 401 401 397 424 413 399 416 414 399 401 401 401 413 419 421 427 433 440 440 443 458 467 472 475 479 475 501 499 501 520 527 535 540 545 546 549 552 554 559 560 572 591 601 610 621 625 641 649 655 651 651 648 614 601 599 608 598 685 699 702 719 701 716 634 604 575 602 530 552 479 464 395 481 400 402 373 378 328 320 328 299 280 199 188 165 96 104 94 68 82 79 94 89 83 92 79 99 178 109 101 52 101 103 66 45 37 32 24 25 28 31 30 31 30 26 26 23 12 7 7 3 4 9 15 18 18 14 2 1 2 4 5 4 12 16 16 9 4 -9999 -9999 -9999 -9999 -9999 -9999 -9999 -9999 -9999 -9999 -9999 -9999 -9999 -9999 -9999 -9999 -9999 -9999 -9999 -9999 -9999 -9999 -9999 -9999 -9999 -9999 -9999 -9999 -9999 -9999 -9999 -9999 -9999 -9999 -9999 -9999 -9999 -9999 -9999 -9999 -9999 -9999 -9999 -9999 -9999 -9999 -9999 -9999 -9999 -9999 -9999 -9999 -9999 -9999 -9999 -9999 -9999 -9999 -9999 -9999 -9999 -9999 -9999 -9999 -9999 -9999 -9999 -9999 -9999 -9999 -9999
695 695 700 791 800 690 690 660 672 679 700 600 598 596 595 578 555 558 593 600 526 510 535 577 700 594 594 707 866 1025 1154 1208 1169 958 860 800 744 842 698 717 702 678 694 693 696 677 668 653 640 628 617 605 563 539 532 512 500 490 490 490 495 518 548 571 587 585 589 600 600 654 668 694 750 776 761 731 714 692 671 636 638 600 581 570 700 615 609 581 578 582 583 591 608 625 639 646 646 689 673 659 644 643 659 682 697 760 801 800 794 855 945 990 1028 1056 1070 1094 1209 1249 1278 1287 1363 1485 1533 1586 1647 1730 1777 1786 1841 1866 1900 1959 1980 1970 1976 1978 1933 1857 1875 1919 1963 1962 1915 1834 1770 1628 1624 1705 1703 1697 1726 1700 1708 1710 1700 1700 1701 1688 1635 1607 1561 1536 1513 1499 1496 1494 1493 1493 1493 1492 1493 1500 1497 1491 1497 1496 1615 1700 1700 1667 1713 1735 1620 1328 1261 1219 1133 1132 1164 1176 1192 1231 1200 1100 1081 1248 1342 1285 1226 1098 1174 1089 997 1100 1146 1079 959 1030 1000 910 596 592 633 723 887 798 875 894 764 644 579 408 535 659 653 577 537 466 292 260 235 221 240 295 420 462 467 299 265 235 233 222 214 195 195 256 246 264 360 600 700 550 294 267 252 242 241 253 304 359 500 520 445 362 324 304 298 348 473 615 500 500 300 242 214 209 194 185 178 175 168 166 163 165 167 169 171 170 168 166 160 154 145 141 144 133 128 133 155 134 140 146 140 137 133 130 142 150 150 145 128 127 133 138 143 145 202 165 190 193 194 200 185 183 181 179 177 175 169 168 166 162 159 160 162 162 164 164 160 150 146 141 137 133 130 126 125 123 120 120 119 117 117 118 119 119 120 120 119 120 129 139 146 151 153 154 154 153 153 152 151 150 150 149 149 149 149 149 150 150 150 150 148 147 146 146 146 147 147 145 140 131 120 115 119 124 132 142 153 166 172 194 217 224 228 234 238 240 246 257 271 279 278 267 262 265 281 299 397 367 305 301 295 301 335 375 351 401 389 362 413 416 388 384 413 449 449 433 419 402 407 413 401 421 420 422 419 406 411 416 409 426 429 428 435 448 470 440 445 478 479 476 479 476 477 475 500 517 523 526 533 551 549 550 549 551 561 578 576 594 599 600 616 621 624 649 649 606 651 599 599 591 602 596 601 586 650 701 693 688 701 701 599 598 494 495 499 397 458 420 397 498 412 374 389 397 292 284 294 279 274 207 198 171 99 102 99 89 48 54 75 78 79 82 85 124 192 95 98 101 93 51 40 40 34 30 22 19 22 25 27 31 30 27 21 19 19 10 1 2 1 5 13 17 17 14 10 2 1 1 2 3 11 10 6 4 3 -9999 -9999 -9999 -9999 -9999 -9999 -9999 -9999 -9999 -9999 -9999 -9999 -9999 -9999 -9999 -9999 -9999 -9999 -9999 -9999 -9999 -9999 -9999 -9999 -9999 -9999 -9999 -9999 -9999 -9999 -9999 -9999 -9999 -9999 -9999 -9999 -9999 -9999 -9999 -9999 -9999 -9999 -9999 -9999 -9999 -9999 -9999 -9999 -9999 -9999 -9999 -9999 -9999 -9999 -9999 -9999 -9999 -9999 -9999 -9999 -9999 -9999 -9999 -9999 -9999 -9999 -9999 -9999 -9999 -9999 -9999
800 810 748 694 671 681 689 624 631 690 700 600 587 590 580 582 602 542 538 527 533 556 550 538 585 600 800 875 835 900 1043 1235 1210 996 1000 772 800 912 673 641 637 675 670 666 677 675 673 664 655 642 630 616 591 569 547 528 523 492 490 490 490 490 490 506 533 537 540 570 596 605 635 669 689 722 756 771 746 730 707 674 667 625 619 617 606 585 576 603 600 603 595 599 607 613 632 650 676 669 657 658 653 636 639 662 675 687 689 694 749 854 927 973 1003 1022 1037 1065 1145 1226 1244 1275 1296 1400 1469 1500 1561 1668 1718 1776 1797 1844 1910 1900 2001 2000 2016 2051 1970 1883 1864 1953 1923 1900 1800 1770 1669 1598 1600 1700 1700 1712 1707 1700 1690 1700 1681 1675 1700 1691 1660 1628 1577 1553 1532 1511 1502 1495 1495 1497 1502 1495 1495 1505 1510 1501 1497 1493 1493 1500 1610 1600 1665 1706 1659 1462 1300 1286 1240 1200 1128 1166 1160 1200 1142 1108 1086 1040 1216 1328 1200 1212 1094 1082 1038 1078 1090 1108 1029 1000 1018 1000 932 654 584 573 765 1000 876 985 900 700 705 654 396 442 668 681 587 565 424 284 258 235 218 250 343 487 503 366 278 267 257 235 209 200 210 250 234 248 283 500 634 441 286 261 246 236 254 280 292 323 474 598 605 446 321 299 294 300 388 577 598 679 526 200 200 195 189 183 181 176 170 170 171 160 161 164 165 166 165 162 160 155 145 132 129 130 136 139 142 141 155 160 151 142 136 139 151 154 154 150 137 128 131 136 144 148 150 200 194 199 210 205 204 191 182 179 176 173 174 175 174 167 161 162 164 166 167 165 160 151 145 141 137 135 132 127 124 121 117 117 117 118 119 120 120 121 121 121 120 120 121 127 134 139 143 145 147 148 149 149 150 150 150 150 150 150 150 150 150 151 151 150 148 146 144 142 141 141 140 137 133 126 119 115 115 124 134 145 157 169 165 186 198 197 222 231 238 242 245 249 269 274 273 271 257 268 285 356 385 299 301 298 275 304 306 340 341 381 393 384 431 443 414 392 440 452 437 437 448 451 443 425 408 429 426 427 426 423 423 425 423 425 428 430 434 440 451 465 483 479 482 481 481 503 485 499 499 504 519 549 549 552 558 561 557 563 593 580 580 599 601 610 621 619 618 649 649 649 649 715 639 600 590 603 601 605 600 636 605 616 701 622 599 577 468 539 551 470 354 395 396 401 305 282 292 288 349 253 217 211 218 199 160 101 80 158 170 110 51 45 101 76 97 101 102 112 115 107 106 59 40 36 36 35 32 30 25 19 19 18 19 26 29 29 27 28 26 16 2 1 2 11 11 14 14 13 6 1 1 1 2 5 8 8 4 -9999 -9999 -9999 -9999 -9999 -9999 -9999 -9999 -9999 -9999 -9999 -9999 -9999 -9999 -9999 -9999 -9999 -9999 -9999 -9999 -9999 -9999 -9999 -9999 -9999 -9999 -9999 -9999 -9999 -9999 -9999 -9999 -9999 -9999 -9999 -9999 -9999 -9999 -9999 -9999 -9999 -9999 -9999 -9999 -9999 -9999 -9999 -9999 -9999 -9999 -9999 -9999 -9999 -9999 -9999 -9999 -9999 -9999 -9999 -9999 -9999 -9999 -9999 -9999 -9999 -9999 -9999 -9999 -9999 -9999 -9999 -9999 -9999
971 981 800 700 665 663 700 600 678 800 741 693 594 590 588 563 544 530 526 540 559 592 586 546 562 581 593 627 684 697 900 1250 1241 1141 900 779 1000 859 658 596 599 700 688 697 697 683 665 678 667 656 642 629 615 607 585 600 555 531 497 500 494 490 491 490 491 492 504 548 570 588 614 632 662 686 717 739 764 765 750 717 703 685 665 678 636 603 592 592 643 639 623 617 641 641 667 665 655 650 641 647 645 633 624 645 650 659 667 685 744 839 907 943 969 985 996 1033 1089 1200 1233 1266 1300 1345 1416 1500 1500 1505 1678 1746 1800 1845 1854 1900 1900 1936 1970 2000 1970 1868 1815 1989 1945 1918 1887 1755 1609 1594 1595 1652 1700 1713 1706 1701 1700 1680 1681 1661 1674 1673 1662 1626 1588 1577 1549 1524 1500 1498 1498 1508 1546 1500 1499 1514 1532 1518 1508 1502 1501 1495 1494 1538 1615 1682 1661 1544 1400 1381 1330 1259 1187 1105 1094 1171 1202 1087 1267 1200 1019 1237 1267 1191 1200 1095 1078 1100 1053 1097 1083 1022 914 900 978 900 651 569 570 700 941 1081 1000 800 685 707 558 400 400 600 700 590 549 434 289 260 231 212 276 464 507 400 300 273 247 217 208 186 221 232 226 244 271 292 350 294 279 260 244 233 250 270 277 291 435 600 648 537 391 360 301 316 346 482 600 700 666 400 220 195 189 185 183 177 173 173 177 162 157 159 160 161 160 159 154 152 150 130 128 135 182 166 146 148 180 185 157 153 144 141 163 157 157 152 141 129 132 139 150 158 168 179 200 197 214 200 194 204 195 182 179 177 177 177 173 167 164 165 165 168 171 166 158 150 143 139 135 132 129 127 125 117 117 117 118 119 121 122 122 122 122 122 121 121 122 122 126 131 135 139 142 144 146 148 149 150 150 150 150 150 150 150 150 151 151 150 148 145 142 139 137 136 134 131 128 123 118 115 118 127 137 149 162 175 168 199 199 200 223 230 236 243 276 274 270 265 257 254 252 266 281 289 295 280 289 283 279 289 301 300 309 333 345 399 437 451 454 443 445 451 451 451 457 449 438 429 429 434 430 425 425 428 429 425 430 429 431 432 438 442 464 479 477 493 485 482 480 501 507 518 513 519 532 549 550 565 579 567 560 574 592 601 601 603 612 623 629 623 617 597 601 608 632 633 616 598 534 578 579 585 597 629 603 701 680 648 601 594 490 412 499 480 386 309 352 319 297 215 201 190 253 284 204 197 196 182 159 101 87 173 61 51 41 48 98 48 49 47 81 101 50 46 40 40 39 34 33 31 29 27 24 21 16 21 14 22 25 29 29 29 25 19 8 2 1 6 11 13 13 5 2 1 1 2 2 4 6 6 4 -9999 -9999 -9999 -9999 -9999 -9999 -9999 -9999 -9999 -9999 -9999 -9999 -9999 -9999 -9999 -9999 -9999 -9999 -9999 -9999 -9999 -9999 -9999 -9999 -9999 -9999 -9999 -9999 -9999 -9999 -9999 -9999 -9999 -9999 -9999 -9999 -9999 -9999 -9999 -9999 -9999 -9999 -9999 -9999 -9999 -9999 -9999 -9999 -9999 -9999 -9999 -9999 -9999 -9999 -9999 -9999 -9999 -9999 -9999 -9999 -9999 -9999 -9999 -9999 -9999 -9999 -9999 -9999 -9999 -9999 -9999 -9999 -9999
1466 1300 1024 776 687 664 659 677 589 628 651 700 693 690 587 555 532 540 562 615 589 616 575 575 570 580 581 592 637 688 867 1211 1311 900 793 900 874 746 600 631 581 655 700 700 675 642 683 700 687 676 658 650 645 626 613 608 600 555 509 496 502 516 507 517 511 503 490 522 540 565 561 611 638 661 682 710 736 766 773 760 746 729 704 674 665 647 621 606 667 681 662 650 666 671 672 635 625 629 626 634 631 623 610 625 641 646 658 693 746 824 876 909 937 954 983 1027 1061 1154 1220 1240 1262 1295 1400 1472 1500 1540 1600 1700 1771 1834 1879 1900 1931 1897 1900 2001 2004 1900 1848 1855 1885 1900 1902 1770 1599 1592 1593 1611 1680 1700 1693 1688 1686 1683 1678 1639 1644 1651 1638 1629 1613 1588 1559 1548 1549 1530 1502 1509 1600 1560 1508 1520 1557 1542 1518 1520 1515 1497 1494 1495 1600 1641 1619 1530 1446 1425 1414 1354 1315 1228 1178 1088 1200 1156 1270 1300 1248 1027 1245 1252 1177 1200 1100 1079 1054 1043 1100 1021 959 882 880 900 800 600 571 545 600 956 1000 901 752 685 707 400 358 385 534 700 593 565 567 285 244 223 209 342 500 423 375 338 276 243 191 200 209 214 212 242 265 267 278 282 271 258 238 229 245 263 281 291 347 568 642 623 571 448 500 290 292 300 459 570 704 600 300 197 188 200 182 177 174 173 180 175 164 155 155 156 155 153 147 139 134 139 136 134 149 200 158 166 187 190 168 167 160 148 149 159 161 150 150 139 134 141 150 156 163 171 181 202 207 226 206 220 200 184 182 181 179 177 174 168 167 169 166 173 175 164 152 146 140 135 132 129 127 125 123 117 117 117 119 122 123 124 125 124 124 123 123 122 122 122 124 127 131 134 138 140 143 146 148 150 150 150 150 150 150 150 150 150 151 150 148 144 140 137 134 132 130 127 124 120 117 116 121 130 140 152 166 180 179 201 206 210 219 228 237 244 273 273 269 250 245 262 267 274 281 291 299 304 301 290 300 301 300 299 316 326 344 408 376 402 408 401 419 451 451 435 477 455 484 437 439 441 438 438 434 434 436 436 435 437 435 438 445 458 480 492 479 480 483 481 490 521 541 536 535 542 551 550 554 558 587 580 567 577 576 581 601 611 625 625 628 629 629 625 601 601 601 601 586 525 599 602 597 615 701 702 686 699 689 644 582 501 499 457 397 398 384 313 284 301 298 203 192 207 165 199 170 166 160 126 102 72 76 102 49 40 40 40 48 45 42 47 49 50 44 41 38 41 41 36 36 33 30 30 29 27 23 21 17 10 20 27 31 31 26 16 8 5 1 1 5 9 10 1 1 1 1 1 1 3 4 4 -9999 -9999 -9999 -9999 -9999 -9999 -9999 -9999 -9999 -9999 -9999 -9999 -9999 -9999 -9999 -9999 -9999 -9999 -9999 -9999 -9999 -9999 -9999 -9999 -9999 -9999 -9999 -9999 -9999 -9999 -9999 -9999 -9999 -9999 -9999 -9999 -9999 -9999 -9999 -9999 -9999 -9999 -9999 -9999 -9999 -9999 -9999 -9999 -9999 -9999 -9999 -9999 -9999 -9999 -9999 -9999 -9999 -9999 -9999 -9999 -9999 -9999 -9999 -9999 -9999 -9999 -9999 -9999 -9999 -9999 -9999 -9999 -9999 -9999
1100 1100 1159 1000 785 675 610 588 585 591 586 583 593 635 645 570 549 560 582 728 700 850 649 594 630 645 600 599 639 835 1047 1200 1100 975 862 772 734 700 800 901 643 575 604 615 631 693 697 699 700 693 680 675 654 650 640 622 609 583 500 490 490 498 514 528 533 520 503 497 522 533 497 558 609 631 661 683 716 737 755 773 787 775 790 741 711 690 665 647 691 761 714 700 700 676 640 605 609 608 600 623 617 613 602 605 621 637 658 678 759 809 839 881 909 927 953 983 1013 1000 1196 1195 1211 1287 1328 1453 1509 1537 1581 1665 1700 1780 1837 1875 1926 1902 1905 1947 2003 1990 1970 1774 1868 1839 1807 1635 1598 1592 1588 1598 1680 1665 1674 1670 1662 1657 1628 1600 1617 1630 1603 1598 1597 1593 1576 1565 1552 1565 1558 1520 1538 1603 1610 1571 1572 1570 1563 1534 1518 1507 1498 1495 1500 1575 1597 1517 1480 1456 1458 1437 1415 1345 1200 1231 1200 1144 1300 1400 1339 1303 1036 1136 1205 1126 1100 1144 1061 1100 1025 1033 927 826 810 783 885 811 800 676 600 586 868 826 812 700 696 628 376 351 377 556 695 585 500 400 267 236 210 250 448 491 523 487 465 300 250 191 179 196 204 231 239 239 257 261 261 247 229 242 265 277 291 300 297 540 662 685 685 558 523 297 301 298 298 382 700 700 435 199 185 185 182 177 175 177 182 180 176 163 152 151 151 146 141 145 143 151 142 130 142 201 200 190 200 187 185 196 182 160 148 160 167 158 154 151 143 139 145 149 151 165 177 188 184 188 228 197 210 200 184 181 179 177 175 170 170 175 171 172 176 175 150 146 140 136 135 134 130 127 123 117 117 117 121 124 126 127 127 126 126 125 124 123 123 123 123 125 128 132 135 138 141 144 148 150 150 150 150 150 149 149 149 149 150 149 147 143 138 134 131 128 126 124 122 119 117 116 123 132 142 154 168 182 184 203 213 221 224 229 231 238 239 243 244 242 256 267 271 278 287 288 299 301 316 319 320 316 318 317 319 328 349 360 369 399 370 355 399 485 451 436 445 450 439 439 440 443 444 451 440 449 440 483 452 451 445 440 447 499 495 498 481 485 499 493 507 548 553 547 548 583 550 564 560 580 595 597 577 577 582 594 606 629 599 601 592 603 601 609 583 580 588 601 603 580 578 587 602 601 698 683 648 572 561 509 492 461 377 427 371 355 381 301 269 305 230 201 194 208 156 156 155 155 159 136 91 49 85 48 44 40 39 37 38 39 38 39 40 38 38 36 35 38 39 36 35 34 33 33 31 29 25 23 21 20 11 25 31 32 29 16 12 8 3 -9999 -9999 -9999 1 3 1 1 1 2 3 3 1 2 3 -9999 -9999 -9999 -9999 -9999 -9999 -9999 -9999 -9999 -9999 -9999 -9999 -9999 -9999 -9999 -9999 -9999 -9999 -9999 -9999 -9999 -9999 -9999 -9999 -9999 -9999 -9999 -9999 -9999 -9999 -9999 -9999 -9999 -9999 -9999 -9999 -9999 -9999 -9999 -9999 -9999 -9999 -9999 -9999 -9999 -9999 -9999 -9999 -9999 -9999 -9999 -9999 -9999 -9999 -9999 -9999 -9999 -9999 -9999 -9999 -9999 -9999 -9999 -9999 -9999 -9999 -9999 -9999 -9999 -9999 -9999 -9999 -9999
1000 841 836 1100 1050 800 630 589 577 571 567 560 563 549 564 551 561 600 745 752 951 1041 690 730 659 683 764 800 900 939 836 817 908 1094 1015 772 695 700 785 915 673 598 560 541 600 680 800 783 723 696 685 663 641 633 616 612 608 603 500 490 493 521 520 525 541 537 520 498 501 504 506 490 548 613 648 687 680 713 725 741 759 773 791 781 747 729 697 692 754 788 755 715 700 732 668 586 596 596 597 609 603 605 592 596 608 626 641 672 695 773 800 830 863 875 888 894 913 971 1109 1152 1172 1200 1282 1413 1455 1530 1581 1611 1662 1700 1800 1843 1866 1874 1899 1900 1905 1976 2000 1841 1834 1813 1773 1703 1700 1594 1585 1590 1609 1632 1654 1654 1700 1689 1635 1605 1598 1609 1615 1602 1602 1600 1574 1564 1558 1555 1600 1590 1549 1566 1592 1625 1635 1605 1592 1520 1502 1500 1498 1500 1500 1495 1539 1569 1500 1493 1496 1484 1447 1434 1400 1247 1175 1169 1230 1353 1410 1271 1300 1134 955 1166 1100 1091 1109 1100 1100 1000 1026 976 915 800 730 848 891 800 700 538 643 800 792 772 722 784 600 369 330 378 600 643 495 600 283 241 217 235 290 474 486 500 597 500 423 193 226 237 193 193 200 212 227 238 242 235 222 254 289 289 300 336 299 450 700 696 692 600 545 300 302 304 302 300 475 708 556 237 185 185 182 178 181 184 186 183 177 168 157 148 147 144 150 153 154 153 141 132 141 167 190 190 190 195 201 200 188 165 158 159 170 170 165 158 153 147 146 149 157 166 174 179 182 184 197 201 191 196 184 182 180 178 176 172 172 177 174 172 177 173 161 150 145 143 139 136 131 128 125 123 117 117 123 127 129 130 129 128 127 126 125 124 124 123 124 125 128 130 133 136 138 141 147 150 150 150 149 148 148 147 147 147 148 148 145 141 136 131 128 125 123 121 120 118 117 116 123 132 142 154 167 180 183 201 204 218 225 228 225 225 229 245 252 255 267 271 269 283 299 301 298 312 322 328 329 325 325 324 328 339 349 365 392 376 401 401 420 478 439 439 451 439 439 440 440 448 448 488 445 459 446 478 479 445 473 445 475 486 479 479 499 598 499 485 495 560 589 551 551 575 577 577 585 598 622 621 610 610 619 621 629 596 602 580 601 599 585 611 601 589 628 620 599 631 601 601 583 560 599 577 487 501 439 372 435 356 379 334 384 299 303 295 289 299 209 189 178 181 194 190 155 183 192 97 99 99 46 44 45 40 40 36 36 36 36 35 38 37 34 33 34 35 39 35 35 38 36 30 30 27 24 22 22 16 8 19 29 34 35 35 21 11 7 -9999 -9999 -9999 -9999 1 1 1 1 1 3 3 -9999 -9999 -9999 -9999 -9999 -9999 -9999 -9999 -9999 -9999 -9999 -9999 -9999 -9999 -9999 -9999 -9999 -9999 -9999 -9999 -9999 -9999 -9999 -9999 -9999 -9999 -9999 -9999 -9999 -9999 -9999 -9999 -9999 -9999 -9999 -9999 -9999 -9999 -9999 -9999 -9999 -9999 -9999 -9999 -9999 -9999 -9999 -9999 -9999 -9999 -9999 -9999 -9999 -9999 -9999 -9999 -9999 -9999 -9999 -9999 -9999 -9999 -9999 -9999 -9999 -9999 -9999 -9999 -9999 -9999 -9999 -9999 -9999 -9999 -9999 -9999
696 680 670 800 866 800 700 654 601 603 596 593 587 564 544 550 589 596 743 678 829 1100 950 938 813 900 924 1058 900 798 769 794 830 1000 856 810 874 800 698 775 707 641 590 587 540 567 630 728 672 699 678 631 617 611 585 555 530 584 492 563 600 542 542 543 560 563 533 513 500 490 490 490 490 525 603 633 664 675 692 712 729 744 757 757 775 759 734 740 801 808 803 786 779 705 590 574 573 574 588 600 596 593 582 588 597 615 644 673 684 703 746 777 800 811 859 911 944 990 1028 1118 1147 1176 1233 1384 1441 1535 1592 1670 1664 1697 1769 1823 1875 1867 1870 1862 1901 1850 1932 1924 1728 1809 1746 1700 1599 1591 1585 1580 1600 1624 1629 1633 1649 1653 1621 1599 1600 1591 1604 1601 1588 1600 1575 1565 1595 1567 1548 1600 1591 1570 1554 1571 1595 1665 1635 1588 1552 1513 1513 1509 1480 1500 1505 1486 1511 1537 1521 1475 1509 1500 1486 1286 1164 1300 1154 1273 1417 1346 1142 1100 1066 973 1070 1143 1171 1186 1138 1100 1023 1000 993 942 874 702 697 833 795 800 542 600 675 772 720 621 700 550 343 330 387 606 576 500 288 246 203 233 264 287 400 514 600 565 537 344 200 355 330 500 600 341 229 219 218 220 222 247 300 294 503 447 430 424 637 700 698 648 576 469 353 356 339 290 300 486 552 280 193 184 180 182 194 191 194 185 177 170 164 157 151 150 156 160 159 153 147 131 138 161 200 200 201 202 203 198 198 186 189 157 168 178 173 166 185 158 157 151 157 168 175 178 181 183 194 199 194 185 184 182 180 178 176 172 175 179 175 173 178 169 160 150 145 142 138 135 130 126 124 123 122 117 124 130 132 132 131 129 128 127 126 125 125 124 124 125 127 130 132 134 135 137 146 150 150 148 147 146 145 145 144 143 144 146 142 137 132 128 124 120 120 119 119 118 116 116 123 131 141 152 164 176 180 199 200 218 223 225 220 223 238 251 264 266 271 269 265 303 302 302 301 318 328 333 331 329 328 328 331 349 355 371 360 401 401 399 437 444 439 438 437 440 445 469 446 493 458 475 479 479 477 481 445 468 498 475 476 480 480 490 501 501 499 520 580 598 567 538 529 538 550 569 588 599 599 600 625 623 619 619 599 603 601 578 599 598 569 607 599 504 598 599 629 601 559 518 499 416 508 479 476 422 399 350 402 325 381 299 285 299 279 278 301 301 299 196 208 184 188 164 160 171 144 101 52 51 49 43 41 40 38 36 35 34 33 33 34 33 31 32 35 35 36 35 35 41 42 27 28 26 22 20 18 9 6 13 26 35 39 47 18 11 7 -9999 -9999 -9999 -9999 -9999 1 2 1 1 -9999 -9999 -9999 -9999 -9999 -9999 -9999 -9999 -9999 -9999 -9999 -9999 -9999 -9999 -9999 -9999 -9999 -9999 -9999 -9999 -9999 -9999 -9999 -9999 -9999 -9999 -9999 -9999 -9999 -9999 -9999 -9999 -9999 -9999 -9999 -9999 -9999 -9999 -9999 -9999 -9999 -9999 -9999 -9999 -9999 -9999 -9999 -9999 -9999 -9999 -9999 -9999 -9999 -9999 -9999 -9999 -9999 -9999 -9999 -9999 -9999 -9999 -9999 -9999 -9999 -9999 -9999 -9999 -9999 -9999 -9999 -9999 -9999 -9999 -9999 -9999 -9999 -9999
694 670 600 634 600 599 641 666 593 578 571 549 559 554 536 545 562 584 589 653 689 800 1102 880 900 872 1048 1000 900 800 738 800 1000 800 721 782 948 720 678 673 639 592 680 633 584 536 499 543 560 600 557 585 603 583 533 497 490 490 506 600 590 563 560 561 561 551 534 517 502 490 490 490 490 490 500 557 610 630 660 678 702 713 726 736 750 767 776 800 807 816 817 810 802 700 606 565 557 560 569 569 569 572 574 584 595 622 652 651 664 681 700 735 761 773 842 919 936 943 961 1075 1123 1162 1195 1279 1370 1465 1580 1700 1703 1700 1708 1800 1840 1880 1862 1891 1799 1798 1875 1854 1869 1700 1778 1660 1599 1592 1586 1579 1590 1605 1614 1618 1639 1646 1619 1663 1600 1591 1596 1597 1580 1579 1562 1571 1587 1600 1600 1581 1579 1540 1578 1544 1576 1592 1680 1684 1638 1594 1574 1500 1476 1465 1473 1481 1468 1500 1551 1539 1555 1551 1532 1400 1247 1196 1320 1188 1222 1387 1217 1061 995 1005 916 1100 1188 1200 1199 1100 1100 969 974 986 889 856 820 700 800 765 705 489 541 739 681 612 575 737 400 300 308 360 400 400 505 300 235 199 220 256 277 294 341 429 500 573 190 259 514 600 608 600 466 245 242 250 242 243 293 293 454 469 500 415 572 652 718 700 617 561 446 392 351 275 198 283 422 235 185 183 182 187 200 219 193 184 177 177 177 175 165 161 165 162 156 152 146 135 132 146 200 200 200 186 198 204 200 200 178 163 160 175 180 172 169 200 168 162 156 165 175 178 180 183 189 196 195 185 184 182 180 179 177 174 178 179 175 177 177 169 157 147 142 140 137 133 127 123 125 121 122 117 123 131 133 132 131 130 128 127 126 126 125 125 125 126 127 129 130 131 132 133 136 144 142 142 143 143 143 142 140 139 140 143 137 133 128 125 121 121 119 119 118 117 116 117 123 131 139 149 160 172 168 198 205 218 220 220 217 225 251 255 262 268 271 269 265 301 311 316 320 319 338 348 340 337 342 344 348 349 353 369 368 399 398 429 436 434 439 438 439 440 453 476 503 501 481 480 501 501 521 499 492 501 495 478 499 495 598 551 499 499 599 513 525 532 506 503 504 521 521 510 547 616 622 629 629 629 629 618 599 601 601 581 579 605 535 524 594 487 501 589 594 503 493 418 383 295 401 405 402 399 386 348 372 294 321 301 298 285 275 274 275 294 271 244 249 199 175 179 159 95 84 80 48 49 45 40 39 37 36 36 34 34 34 31 29 28 27 33 39 36 36 36 34 34 36 31 24 23 22 22 19 8 6 11 21 29 28 12 11 -9999 8 -9999 -9999 -9999 -9999 -9999 -9999 3 3 -9999 -9999 -9999 -9999 -9999 -9999 -9999 -9999 -9999 -9999 -9999 -9999 -9999 -9999 -9999 -9999 -9999 -9999 -9999 -9999 -9999 -9999 -9999 -9999 -9999 -9999 -9999 -9999 -9999 -9999 -9999 -9999 -9999 -9999 -9999 -9999 -9999 -9999 -9999 -9999 -9999 -9999 -9999 -9999 -9999 -9999 -9999 -9999 -9999 -9999 -9999 -9999 -9999 -9999 -9999 -9999 -9999 -9999 -9999 -9999 -9999 -9999 -9999 -9999 -9999 -9999 -9999 -9999 -9999 -9999 -9999 -9999 -9999 -9999 -9999 -9999 -9999 -9999 -9999
595 597 595 585 587 588 588 581 577 575 555 546 543 550 601 579 579 600 700 744 900 1000 863 726 800 795 784 967 863 765 700 837 990 778 700 820 880 858 700 683 649 645 700 800 700 600 525 492 500 551 500 494 490 490 490 530 524 520 530 600 546 592 575 580 579 560 539 522 504 490 490 490 490 490 490 490 534 584 615 637 659 670 705 717 735 754 770 787 797 807 813 803 766 692 650 604 544 544 548 552 559 567 576 586 596 626 621 627 643 664 682 711 727 755 784 856 888 914 900 1000 1126 1200 1194 1213 1300 1387 1484 1613 1643 1657 1658 1665 1804 1900 1822 1827 1786 1782 1794 1764 1787 1731 1690 1654 1615 1596 1587 1579 1575 1587 1597 1600 1613 1624 1615 1598 1594 1587 1586 1587 1572 1561 1555 1562 1570 1578 1557 1550 1547 1550 1550 1552 1545 1555 1587 1680 1700 1656 1609 1544 1499 1495 1467 1437 1500 1506 1481 1509 1529 1573 1593 1535 1425 1314 1300 1181 1200 1317 1223 1055 982 913 1000 1143 1205 1150 1033 1130 1044 884 696 824 993 882 800 800 830 728 597 634 481 526 735 600 561 617 634 368 310 295 341 357 398 473 462 258 197 225 250 273 273 260 270 200 200 210 300 436 525 567 594 600 500 400 294 281 268 311 300 401 549 500 497 600 691 691 700 620 464 382 347 239 198 198 230 200 185 190 184 191 230 200 192 182 183 184 183 179 173 171 164 158 152 146 138 134 133 134 135 168 200 203 205 206 199 200 179 171 164 172 184 178 172 174 200 168 163 164 175 178 179 182 185 191 192 190 187 184 182 181 179 177 180 180 179 180 176 167 153 146 146 145 137 129 125 125 125 117 117 118 122 128 131 131 130 129 128 127 127 126 126 126 126 127 128 130 131 132 132 133 134 135 135 137 139 140 140 139 138 136 134 132 129 128 125 122 122 121 119 118 117 116 116 119 123 129 137 146 156 168 169 195 206 213 203 200 206 246 252 247 252 263 271 271 262 301 314 322 326 331 341 349 349 350 356 355 357 355 359 360 359 399 413 421 428 433 436 441 442 480 499 479 481 501 478 486 499 501 533 522 508 495 480 496 589 601 500 498 521 508 506 521 522 504 499 500 525 522 521 506 543 629 601 612 621 629 601 601 588 588 547 580 580 581 579 501 515 501 401 503 478 446 382 345 297 296 399 340 340 391 351 340 335 299 297 301 275 264 255 253 272 241 247 197 202 167 105 101 81 99 83 74 50 42 40 39 38 36 36 36 35 36 35 34 30 30 29 34 41 38 34 36 34 32 33 29 22 21 15 14 20 7 5 8 8 7 7 5 -9999 -9999 -9999 -9999 -9999 -9999 -9999 -9999 -9999 -9999 -9999 1 -9999 -9999 -9999 -9999 -9999 -9999 -9999 -9999 -9999 -9999 -9999 -9999 -9999 -9999 -9999 -9999 -9999 -9999 -9999 -9999 -9999 -9999 -9999 -9999 -9999 -9999 -9999 -9999 -9999 -9999 -9999 -9999 -9999 -9999 -9999 -9999 -9999 -9999 -9999 -9999 -9999 -9999 -9999 -9999 -9999 -9999 -9999 -9999 -9999 -9999 -9999 -9999 -9999 -9999 -9999 -9999 -9999 -9999 -9999 -9999 -9999 -9999 -9999 -9999 -9999 -9999 -9999 -9999 -9999 -9999 -9999 -9999 -9999 -9999 -9999 -9999 -9999 -9999
724 700 631 575 574 576 573 561 556 550 549 545 548 554 602 600 582 586 580 665 747 670 674 700 700 766 850 1011 900 851 841 667 700 677 800 773 880 976 1000 759 700 680 635 600 731 634 560 510 494 519 495 495 516 490 490 509 542 535 553 569 583 585 580 588 596 572 562 548 513 490 490 490 490 490 490 490 490 524 565 586 600 646 669 703 725 741 759 772 785 798 805 779 766 757 714 682 600 579 542 551 558 563 572 582 593 611 596 605 626 642 655 679 696 711 695 762 798 845 859 886 1024 1110 1164 1200 1243 1291 1370 1473 1500 1527 1550 1543 1700 1776 1765 1789 1774 1751 1794 1744 1681 1704 1686 1659 1615 1597 1589 1583 1578 1571 1581 1587 1595 1615 1667 1615 1598 1600 1584 1574 1565 1558 1559 1559 1555 1548 1536 1525 1525 1534 1535 1582 1600 1540 1548 1579 1595 1680 1662 1631 1544 1500 1459 1394 1426 1555 1561 1522 1500 1500 1641 1584 1479 1400 1390 1359 1316 1300 1200 1138 974 893 900 1067 1161 1203 1172 1037 900 769 684 640 755 900 800 776 728 847 600 600 564 472 471 700 496 509 500 500 334 290 297 347 392 532 615 459 250 196 223 250 267 206 212 191 212 181 221 261 285 364 400 663 500 551 500 506 500 384 298 441 461 600 584 524 669 697 700 596 443 314 261 199 195 191 200 187 190 190 185 189 210 200 189 191 189 187 185 185 192 165 157 154 151 150 137 133 133 139 148 193 200 198 198 201 205 192 200 174 169 180 181 190 182 174 170 200 170 171 169 176 180 183 186 189 213 193 191 188 200 185 183 181 182 184 180 175 165 164 153 148 150 146 137 129 125 124 125 117 117 118 121 125 127 128 128 128 127 127 127 127 126 126 127 128 130 131 132 133 134 135 135 135 136 136 137 138 138 138 137 135 133 131 129 127 126 123 122 121 119 118 116 117 117 119 123 127 133 141 151 161 167 191 201 208 198 198 206 227 251 250 262 262 262 271 264 301 315 322 326 340 350 352 356 358 375 378 367 370 371 360 403 402 421 421 422 436 441 448 504 499 475 501 501 498 501 501 500 536 538 538 496 499 483 499 601 579 598 579 578 581 547 509 520 587 641 689 696 699 689 701 702 601 583 598 565 601 578 597 601 593 500 589 601 580 534 501 410 408 391 401 399 395 401 344 301 298 360 350 371 348 344 321 343 299 264 267 249 248 240 250 204 229 200 180 174 154 108 92 78 66 50 49 49 42 38 39 37 37 38 37 38 38 38 36 35 36 32 24 30 31 33 36 36 31 30 24 20 15 13 9 10 7 5 -9999 4 4 -9999 -9999 -9999 -9999 -9999 -9999 -9999 -9999 -9999 -9999 -9999 -9999 -9999 -9999 -9999 -9999 -9999 -9999 -9999 -9999 -9999 -9999 -9999 -9999 -9999 -9999 -9999 -9999 -9999 -9999 -9999 -9999 -9999 -9999 -9999 -9999 -9999 -9999 -9999 -9999 -9999 -9999 -9999 -9999 -9999 -9999 -9999 -9999 -9999 -9999 -9999 -9999 -9999 -9999 -9999 -9999 -9999 -9999 -9999 -9999 -9999 -9999 -9999 -9999 -9999 -9999 -9999 -9999 -9999 -9999 -9999 -9999 -9999 -9999 -9999 -9999 -9999 -9999 -9999 -9999 -9999 -9999 -9999 -9999 -9999 -9999 -9999 -9999 -9999 -9999 -9999 -9999
660 655 709 600 574 567 561 560 559 553 549 561 600 600 553 564 600 590 580 595 594 641 728 700 800 1040 1150 1100 1000 1000 775 696 656 659 732 873 870 844 800 866 800 668 613 600 572 564 560 508 490 490 490 490 490 490 500 500 504 543 560 587 606 602 611 602 589 578 596 586 541 508 526 526 495 490 494 490 490 490 517 544 576 605 641 700 709 727 744 756 770 793 800 800 800 788 731 658 569 615 568 548 552 558 565 575 585 593 594 595 601 600 628 632 662 674 693 759 769 800 834 840 828 894 1115 1166 1216 1300 1300 1406 1475 1450 1500 1480 1567 1667 1702 1648 1670 1700 1737 1750 1713 1700 1654 1644 1652 1600 1594 1586 1579 1574 1567 1573 1583 1591 1613 1665 1617 1603 1582 1567 1562 1556 1556 1550 1544 1539 1530 1506 1499 1517 1513 1525 1563 1601 1578 1550 1600 1590 1600 1601 1613 1601 1523 1447 1461 1550 1610 1615 1600 1505 1555 1681 1496 1493 1396 1400 1290 1374 1267 1204 1000 896 895 980 1025 1066 1068 1100 1100 1000 773 671 593 660 882 685 648 782 700 580 631 494 490 466 609 500 410 450 358 303 283 313 396 480 490 600 446 242 191 195 260 207 200 253 252 225 205 186 217 238 274 400 700 761 716 600 591 612 475 300 425 492 600 610 592 634 588 478 372 260 236 195 197 195 193 201 196 191 188 200 204 193 192 201 197 192 200 185 182 150 148 147 146 146 139 134 134 134 141 200 200 200 200 203 203 203 189 192 200 180 195 182 192 181 174 171 173 178 176 174 180 185 188 189 202 226 204 195 195 188 187 186 184 180 175 179 185 188 156 151 152 148 138 132 128 125 124 118 117 118 120 123 124 125 126 126 127 127 127 127 127 127 127 129 131 133 134 135 136 137 137 137 137 137 137 137 137 137 136 135 133 131 129 127 126 124 124 122 119 116 116 117 117 117 119 122 129 136 145 154 162 177 182 200 199 196 212 255 262 260 272 280 273 265 301 307 316 322 328 348 352 356 358 366 378 371 378 376 370 373 393 401 401 409 409 434 451 458 489 479 502 481 555 576 501 488 510 529 529 533 529 529 529 528 531 507 518 602 605 568 547 558 601 690 701 679 683 691 708 674 701 570 537 599 560 594 590 549 582 543 492 570 590 562 501 425 401 373 368 350 351 351 349 315 288 250 349 353 346 345 334 321 324 301 275 251 241 231 223 237 208 199 214 201 177 170 138 159 143 73 70 51 40 40 37 37 36 38 49 37 36 37 37 36 36 35 33 31 27 26 32 34 34 33 31 29 19 20 21 10 7 5 -9999 -9999 -9999 -9999 -9999 -9999 -9999 -9999 -9999 -9999 -9999 -9999 -9999 -9999 -9999 -9999 -9999 -9999 -9999 -9999 -9999 -9999 -9999 -9999 -9999 -9999 -9999 -9999 -9999 -9999 -9999 -9999 -9999 -9999 -9999 -9999 -9999 -9999 -9999 -9999 -9999 -9999 -9999 -9999 -9999 -9999 -9999 -9999 -9999 -9999 -9999 -9999 -9999 -9999 -9999 -9999 -9999 -9999 -9999 -9999 -9999 -9999 -9999 -9999 -9999 -9999 -9999 -9999 -9999 -9999 -9999 -9999 -9999 -9999 -9999 -9999 -9999 -9999 -9999 -9999 -9999 -9999 -9999 -9999 -9999 -9999 -9999 -9999 -9999 -9999 -9999 -9999 -9999 -9999 -9999 -9999
603 600 600 596 580 565 564 568 559 552 551 568 570 600 626 603 571 590 700 808 767 746 715 900 850 1100 1063 1100 971 900 900 903 775 606 800 679 696 741 715 700 639 592 597 597 546 555 511 490 496 497 509 500 500 490 490 520 500 559 600 610 619 627 633 619 602 591 570 579 600 571 600 566 532 503 490 490 490 490 490 500 529 566 622 663 701 714 725 738 753 767 771 794 810 802 642 638 710 689 634 600 545 550 557 566 575 579 580 584 589 593 594 612 637 659 684 710 759 800 779 773 721 780 938 1106 1132 1200 1308 1378 1400 1437 1450 1503 1389 1500 1588 1553 1638 1675 1733 1742 1737 1725 1703 1661 1613 1600 1600 1589 1580 1584 1572 1564 1567 1568 1574 1587 1584 1578 1562 1563 1559 1555 1550 1543 1535 1530 1525 1506 1498 1499 1499 1500 1512 1602 1630 1555 1566 1568 1581 1575 1576 1568 1576 1565 1489 1506 1634 1661 1688 1600 1569 1630 1600 1476 1444 1422 1391 1300 1400 1200 1134 965 880 904 935 993 934 897 963 1017 1095 1026 800 628 636 836 621 600 658 600 595 560 500 500 439 600 413 393 355 364 275 319 380 600 500 529 492 447 260 196 207 216 233 300 275 253 226 195 200 188 180 213 274 296 542 750 666 632 641 488 329 503 431 618 600 542 482 407 282 236 198 198 208 197 207 216 200 194 189 195 191 196 196 233 221 215 186 194 170 148 144 140 139 141 140 138 135 135 134 191 202 199 206 196 204 210 199 209 196 188 175 191 200 190 182 175 185 191 183 178 182 187 191 191 194 222 226 199 195 193 190 184 181 179 176 170 200 200 165 157 155 151 140 131 126 122 118 117 117 118 119 120 121 122 124 125 126 127 128 128 128 128 128 130 132 134 136 137 138 139 139 138 138 138 138 137 137 137 136 135 133 131 130 128 127 127 126 124 122 119 117 117 117 117 117 117 124 131 139 146 155 160 158 169 177 183 204 254 273 278 300 332 312 285 272 303 311 319 326 346 354 356 356 357 356 364 370 386 367 371 376 369 361 366 386 406 426 449 449 471 476 463 501 579 484 501 499 498 497 501 484 501 483 501 485 480 490 480 499 507 501 534 601 595 597 598 558 602 599 599 541 538 499 510 528 492 499 538 517 499 430 499 505 499 400 408 374 351 329 321 319 306 301 295 250 289 346 337 325 348 301 307 292 298 298 263 251 237 242 200 199 180 181 180 201 195 203 181 187 92 99 40 40 39 37 37 36 36 37 36 35 36 36 36 35 35 33 30 20 24 30 32 31 35 35 31 23 28 32 7 4 -9999 -9999 -9999 -9999 -9999 -9999 -9999 -9999 -9999 -9999 -9999 -9999 -9999 -9999 -9999 -9999 -9999 -9999 -9999 -9999 -9999 -9999 -9999 -9999 -9999 -9999 -9999 -9999 -9999 -9999 -9999 -9999 -9999 -9999 -9999 -9999 -9999 -9999 -9999 -9999 -9999 -9999 -9999 -9999 -9999 -9999 -9999 -9999 -9999 -9999 -9999 -9999 -9999 -9999 -9999 -9999 -9999 -9999 -9999 -9999 -9999 -9999 -9999 -9999 -9999 -9999 -9999 -9999 -9999 -9999 -9999 -9999 -9999 -9999 -9999 -9999 -9999 -9999 -9999 -9999 -9999 -9999 -9999 -9999 -9999 -9999 -9999 -9999 -9999 -9999 -9999 -9999 -9999 -9999 -9999 -9999 -9999
587 584 586 586 566 571 576 568 561 560 559 573 581 590 572 569 570 582 600 676 865 900 920 1000 1211 900 720 681 732 897 809 696 676 596 592 709 733 597 691 658 670 600 558 528 505 491 503 490 514 516 515 524 500 495 500 506 540 500 601 629 640 650 652 645 627 617 595 579 596 597 603 591 577 531 506 500 490 490 490 490 490 518 574 607 647 691 717 749 763 752 772 777 741 700 583 800 785 726 700 666 609 579 552 555 562 567 568 575 579 581 590 598 619 642 662 683 690 688 696 692 685 701 735 858 1000 1083 1186 1300 1388 1388 1400 1274 1400 1460 1471 1555 1570 1599 1642 1700 1686 1707 1700 1657 1610 1593 1614 1597 1583 1580 1575 1568 1560 1553 1551 1554 1556 1570 1604 1588 1559 1555 1549 1541 1533 1519 1503 1499 1498 1498 1498 1498 1498 1500 1578 1570 1538 1557 1580 1557 1537 1505 1515 1558 1511 1498 1536 1677 1600 1668 1670 1588 1600 1700 1547 1483 1405 1400 1200 1303 1170 1055 899 877 887 990 998 1025 960 870 900 979 1100 876 714 613 833 700 579 569 571 594 548 513 473 415 504 496 429 305 303 300 285 386 552 490 400 407 400 199 200 224 250 331 294 274 257 250 222 206 193 176 194 212 254 340 430 558 700 500 462 386 500 466 614 511 416 284 239 199 200 219 200 220 223 200 196 192 193 206 196 215 234 276 305 309 200 200 185 148 140 138 138 138 140 136 136 135 150 187 198 203 204 185 191 203 206 205 202 189 180 186 200 199 194 181 195 198 188 180 186 189 192 193 191 200 213 210 200 200 187 181 196 195 200 175 165 192 188 160 156 151 142 130 125 119 117 117 118 118 119 120 121 122 123 125 126 128 128 129 129 129 129 131 133 135 137 139 140 141 140 140 139 140 139 139 138 137 136 135 133 132 130 129 128 130 129 128 126 124 121 117 118 118 118 118 118 126 135 142 149 152 151 156 162 178 203 240 262 279 303 297 310 280 299 280 306 303 312 328 340 353 346 349 350 355 356 361 360 355 353 353 349 347 352 357 365 401 401 399 458 449 450 454 475 476 475 481 501 491 502 499 515 531 499 501 501 479 496 485 499 498 514 551 539 601 489 501 499 508 518 494 477 474 479 460 498 499 469 489 394 408 410 403 396 367 354 326 301 303 293 284 269 250 293 340 342 339 301 299 297 303 298 305 299 301 302 301 301 305 240 195 229 282 195 297 299 286 253 83 43 37 38 37 37 37 36 35 35 35 35 35 36 35 34 33 33 29 19 21 27 31 29 31 35 34 37 37 40 41 -9999 -9999 -9999 -9999 -9999 -9999 -9999 -9999 -9999 -9999 -9999 -9999 -9999 -9999 -9999 -9999 -9999 -9999 -9999 -9999 -9999 -9999 -9999 -9999 -9999 -9999 -9999 -9999 -9999 -9999 -9999 -9999 -9999 -9999 -9999 -9999 -9999 -9999 -9999 -9999 -9999 -9999 -9999 -9999 -9999 -9999 -9999 -9999 -9999 -9999 -9999 -9999 -9999 -9999 -9999 -9999 -9999 -9999 -9999 -9999 -9999 -9999 -9999 -9999 -9999 -9999 -9999 -9999 -9999 -9999 -9999 -9999 -9999 -9999 -9999 -9999 -9999 -9999 -9999 -9999 -9999 -9999 -9999 -9999 -9999 -9999 -9999 -9999 -9999 -9999 -9999 -9999 -9999 -9999 -9999 -9999 -9999 -9999
582 582 582 575 579 583 581 567 575 572 571 585 628 644 594 584 580 576 593 622 650 684 700 700 900 800 668 630 599 680 879 900 907 778 728 574 579 700 700 635 572 587 550 505 550 551 492 491 550 545 554 532 500 498 528 500 495 510 556 600 650 662 666 661 651 632 620 611 607 621 626 615 602 572 589 541 507 490 490 490 490 490 506 541 603 640 668 700 733 773 796 782 742 700 800 803 800 783 740 710 685 639 605 577 568 562 577 564 569 577 584 591 600 614 634 644 653 656 665 667 664 675 698 725 780 900 1023 1153 1192 1370 1200 1383 1264 1326 1478 1500 1600 1500 1514 1556 1609 1646 1641 1623 1588 1580 1600 1595 1592 1585 1579 1573 1564 1555 1550 1547 1547 1547 1581 1603 1560 1556 1550 1543 1534 1526 1500 1499 1500 1498 1497 1496 1496 1496 1498 1499 1514 1535 1570 1602 1591 1504 1500 1503 1501 1499 1498 1581 1600 1591 1638 1650 1670 1754 1700 1490 1428 1291 1314 1094 1200 1100 1000 894 879 940 975 1000 1067 1014 900 847 876 899 985 800 546 800 735 587 550 543 536 513 500 431 400 487 395 343 303 298 291 281 382 433 380 361 382 341 215 184 252 317 340 314 288 275 246 250 222 188 204 207 203 175 247 464 652 400 377 389 436 407 524 551 400 277 200 199 200 248 251 223 198 205 197 199 242 237 221 280 200 228 400 264 309 237 196 170 139 138 141 137 137 139 139 144 158 170 200 197 192 190 203 192 202 212 200 193 194 185 197 202 197 197 202 194 200 190 192 197 197 197 200 200 191 204 209 196 187 182 180 180 193 176 200 204 165 162 157 151 142 130 125 119 117 117 118 118 119 120 121 122 124 126 127 128 129 130 130 130 130 131 133 136 138 140 142 143 143 142 142 142 141 141 140 139 137 136 134 133 131 130 129 131 132 132 131 129 126 122 120 119 119 118 118 126 134 142 144 150 154 161 170 192 208 236 255 270 276 279 277 275 276 277 286 296 301 314 326 326 327 333 335 350 349 351 352 338 336 334 336 335 338 351 378 401 401 402 414 448 455 474 478 501 501 501 502 498 501 501 521 539 539 538 526 509 569 520 498 498 498 519 472 495 499 450 460 449 455 464 452 460 437 449 455 436 427 398 387 344 346 348 340 336 337 301 295 272 261 250 248 301 318 338 324 301 299 299 301 285 280 279 301 302 296 295 295 340 299 278 408 295 258 184 127 50 40 40 38 36 37 37 38 37 36 35 35 35 35 34 33 33 32 31 31 30 19 19 19 22 28 31 36 36 39 39 42 44 -9999 -9999 -9999 -9999 -9999 -9999 -9999 -9999 -9999 -9999 -9999 -9999 -9999 -9999 -9999 -9999 -9999 -9999 -9999 -9999 -9999 -9999 -9999 -9999 -9999 -9999 -9999 -9999 -9999 -9999 -9999 -9999 -9999 -9999 -9999 -9999 -9999 -9999 -9999 -9999 -9999 -9999 -9999 -9999 -9999 -9999 -9999 -9999 -9999 -9999 -9999 -9999 -9999 -9999 -9999 -9999 -9999 -9999 -9999 -9999 -9999 -9999 -9999 -9999 -9999 -9999 -9999 -9999 -9999 -9999 -9999 -9999 -9999 -9999 -9999 -9999 -9999 -9999 -9999 -9999 -9999 -9999 -9999 -9999 -9999 -9999 -9999 -9999 -9999 -9999 -9999 -9999 -9999 -9999 -9999 -9999 -9999 -9999
620 627 600 600 600 594 579 566 585 575 577 591 669 672 600 597 590 583 589 597 598 617 658 700 736 800 682 599 593 596 614 676 767 900 719 635 584 573 600 700 583 600 515 531 561 570 569 563 567 567 585 534 490 490 523 523 506 499 499 535 600 655 682 674 664 647 638 635 637 655 656 640 615 620 615 592 558 500 504 490 490 490 490 490 517 600 601 601 650 718 744 746 722 600 750 781 800 800 785 750 721 684 645 621 609 613 597 600 580 572 575 582 589 594 598 607 619 626 637 642 643 666 670 676 689 726 825 875 1051 1100 1325 1479 1463 1411 1325 1400 1418 1367 1458 1453 1524 1550 1568 1587 1575 1577 1588 1583 1584 1587 1584 1577 1568 1559 1556 1553 1550 1540 1562 1558 1560 1554 1550 1536 1531 1526 1511 1500 1507 1508 1506 1498 1495 1494 1495 1497 1499 1512 1535 1566 1596 1539 1571 1550 1505 1600 1564 1526 1563 1683 1671 1799 1698 1738 1724 1516 1486 1450 1264 1200 1028 1000 951 987 889 857 889 974 993 990 900 860 846 854 857 900 777 633 600 720 585 572 590 500 472 419 400 394 442 383 301 304 331 310 259 325 328 284 239 228 205 500 200 424 409 400 383 333 283 266 224 200 215 243 241 236 186 400 523 477 390 451 378 386 500 500 500 282 239 234 252 260 234 204 212 200 222 255 210 199 219 200 205 197 400 274 317 322 185 195 140 139 139 140 149 148 141 143 147 157 172 170 169 201 176 197 201 210 205 200 199 200 185 201 201 204 200 202 196 200 196 202 204 202 201 197 193 192 189 188 200 184 181 180 179 175 192 186 191 164 158 149 138 129 127 119 117 117 118 119 119 120 122 123 125 126 128 130 131 131 132 131 131 132 134 136 139 141 143 144 145 145 145 144 144 142 141 140 138 137 135 133 132 131 131 133 135 136 136 135 133 129 125 122 120 118 119 126 135 144 149 152 157 171 188 199 213 230 246 252 262 262 260 257 260 267 278 287 297 297 300 316 313 324 325 323 328 333 329 323 323 327 330 330 336 343 350 387 379 401 399 461 474 502 485 501 501 501 503 480 499 495 528 500 528 531 526 501 511 525 499 460 451 478 449 451 464 430 422 427 432 440 415 404 400 400 399 389 389 399 359 333 301 341 330 307 299 298 267 252 250 248 248 290 298 309 315 299 299 285 283 279 277 290 297 295 398 395 401 375 403 264 121 88 97 51 42 40 40 40 37 36 35 37 51 44 35 35 35 34 34 31 28 29 28 28 29 30 22 15 16 21 25 29 33 34 41 43 48 42 -9999 -9999 -9999 -9999 -9999 -9999 -9999 -9999 -9999 -9999 -9999 -9999 -9999 -9999 -9999 -9999 -9999 -9999 -9999 -9999 -9999 -9999 -9999 -9999 -9999 -9999 -9999 -9999 -9999 -9999 -9999 -9999 -9999 -9999 -9999 -9999 -9999 -9999 -9999 -9999 -9999 -9999 -9999 -9999 -9999 -9999 -9999 -9999 -9999 -9999 -9999 -9999 -9999 -9999 -9999 -9999 -9999 -9999 -9999 -9999 -9999 -9999 -9999 -9999 -9999 -9999 -9999 -9999 -9999 -9999 -9999 -9999 -9999 -9999 -9999 -9999 -9999 -9999 -9999 -9999 -9999 -9999 -9999 -9999 -9999 -9999 -9999 -9999 -9999 -9999 -9999 -9999 -9999 -9999 -9999 -9999 -9999 -9999
711 805 724 727 668 598 583 568 579 580 580 598 629 732 700 643 598 596 700 740 697 691 700 744 1000 900 800 612 591 585 589 592 595 614 588 583 581 550 545 573 542 510 523 600 590 581 583 663 592 595 650 575 527 493 509 571 558 575 541 524 559 586 694 694 677 665 662 660 662 678 678 675 660 655 624 597 593 546 546 506 496 490 490 490 490 566 602 599 600 638 689 704 713 569 719 773 774 800 806 791 750 714 700 696 700 687 621 599 600 595 580 576 582 587 590 593 596 599 608 614 639 654 656 662 679 690 697 698 855 1103 1163 1416 1527 1517 1475 1400 1378 1365 1400 1500 1504 1481 1514 1560 1554 1557 1565 1568 1575 1578 1580 1581 1572 1565 1560 1555 1551 1543 1548 1553 1551 1545 1530 1525 1520 1517 1511 1508 1513 1519 1516 1509 1500 1495 1494 1495 1497 1499 1520 1544 1568 1559 1563 1595 1602 1594 1608 1581 1579 1691 1689 1700 1784 1800 1700 1559 1510 1491 1400 1280 1100 1100 1176 1068 1009 910 853 886 934 938 915 901 880 803 806 799 912 700 557 572 746 594 650 600 516 552 506 391 387 400 475 400 390 332 300 282 239 334 270 338 320 433 400 500 464 456 485 434 371 285 254 245 222 245 274 285 400 166 412 500 392 375 400 375 450 400 600 458 474 300 281 263 244 228 247 238 253 259 255 200 195 199 235 192 400 366 372 408 194 158 146 142 141 139 141 157 148 144 150 150 163 186 200 180 191 187 200 201 211 215 210 201 192 197 207 200 197 205 201 204 202 203 208 206 205 201 196 192 186 185 191 181 179 178 177 175 167 165 172 200 161 150 135 131 130 119 119 117 118 118 119 120 122 124 125 127 129 131 132 133 134 133 132 132 134 136 139 141 144 146 147 147 147 146 145 144 142 141 139 137 136 134 132 131 132 134 137 139 141 142 141 138 132 125 118 118 120 127 135 145 151 157 165 177 187 194 197 211 229 232 248 248 246 242 250 258 270 274 282 286 298 296 301 298 298 306 311 310 305 301 320 325 324 329 330 330 368 401 401 437 460 473 482 498 501 488 499 501 501 501 499 499 495 488 504 498 499 493 501 510 486 444 426 443 435 405 432 401 401 401 404 406 394 374 367 399 364 366 357 351 333 301 299 301 301 301 301 277 251 249 247 248 248 217 228 301 300 301 307 299 272 279 304 280 392 392 401 396 359 190 143 54 106 84 47 41 40 40 42 38 36 35 35 35 35 35 35 35 34 31 32 31 27 23 21 22 23 27 24 17 14 18 23 28 29 27 42 88 42 30 7 -9999 -9999 -9999 -9999 -9999 -9999 -9999 -9999 -9999 -9999 -9999 -9999 -9999 -9999 -9999 -9999 -9999 -9999 -9999 -9999 -9999 -9999 -9999 -9999 -9999 -9999 -9999 -9999 -9999 -9999 -9999 -9999 -9999 -9999 -9999 -9999 -9999 -9999 -9999 -9999 -9999 -9999 -9999 -9999 -9999 -9999 -9999 -9999 -9999 -9999 -9999 -9999 -9999 -9999 -9999 -9999 -9999 -9999 -9999 -9999 -9999 -9999 -9999 -9999 -9999 -9999 -9999 -9999 -9999 -9999 -9999 -9999 -9999 -9999 -9999 -9999 -9999 -9999 -9999 -9999 -9999 -9999 -9999 -9999 -9999 -9999 -9999 -9999 -9999 -9999 -9999 -9999 -9999 -9999 -9999 -9999 -9999
900 952 800 700 600 592 581 589 580 583 590 588 597 656 700 655 629 681 696 853 999 791 800 899 800 848 668 614 589 578 576 578 575 574 569 558 555 552 539 520 515 537 572 597 623 659 598 659 900 700 588 555 523 497 498 570 600 656 598 564 539 570 594 700 693 683 687 686 683 689 683 677 666 667 652 625 595 600 601 558 549 514 490 490 490 496 560 602 614 700 675 632 533 600 717 756 785 786 800 774 759 739 719 733 736 719 679 651 618 623 609 593 585 581 585 590 590 591 596 603 630 634 643 655 671 680 684 694 762 914 1100 1187 1440 1581 1579 1482 1377 1381 1392 1471 1512 1486 1511 1529 1537 1554 1590 1562 1567 1571 1572 1575 1576 1566 1557 1551 1546 1540 1537 1546 1536 1525 1521 1517 1515 1513 1515 1523 1525 1528 1528 1525 1513 1502 1494 1492 1494 1497 1507 1546 1600 1582 1587 1582 1599 1600 1571 1649 1587 1697 1660 1727 1735 1682 1620 1503 1509 1488 1391 1321 1172 1127 1200 1169 1063 1053 939 854 915 927 860 827 847 826 794 795 792 800 634 503 500 777 635 712 638 588 491 441 386 378 406 455 400 365 324 300 321 309 277 377 362 400 539 300 480 400 547 521 501 400 286 279 250 238 278 400 600 600 165 378 400 400 401 424 399 491 600 676 432 312 291 276 267 260 263 281 273 234 199 225 195 192 197 197 200 400 300 360 195 165 153 148 143 140 142 163 151 146 151 158 169 190 200 200 199 200 200 199 199 212 209 201 198 189 201 205 201 208 207 209 208 210 209 206 201 203 197 195 187 184 181 176 175 175 176 175 168 163 170 190 158 142 134 134 133 129 127 122 117 118 119 121 122 124 126 128 130 132 134 135 136 136 134 133 134 136 139 141 144 146 148 149 148 148 146 145 143 142 140 138 136 134 132 132 133 135 138 142 145 147 148 146 138 128 120 118 121 126 133 142 154 158 162 163 164 171 171 197 212 224 229 233 232 238 251 254 259 258 259 257 269 272 283 280 287 297 290 288 292 299 301 317 340 335 339 396 479 393 398 487 488 501 501 501 501 501 499 490 501 491 474 494 484 481 470 480 453 448 476 465 449 436 400 399 398 395 402 381 362 354 349 368 349 320 339 350 343 346 330 329 307 299 297 284 299 299 271 257 250 249 232 252 240 199 221 293 293 286 279 270 301 281 339 376 299 312 320 153 137 201 176 99 40 40 40 40 41 39 38 36 35 35 34 34 34 35 35 35 34 32 32 31 28 23 20 18 18 20 23 20 14 16 18 22 25 19 35 43 38 19 2 -9999 -9999 -9999 -9999 -9999 -9999 -9999 -9999 -9999 -9999 -9999 -9999 -9999 -9999 -9999 -9999 -9999 -9999 -9999 -9999 -9999 -9999 -9999 -9999 -9999 -9999 -9999 -9999 -9999 -9999 -9999 -9999 -9999 -9999 -9999 -9999 -9999 -9999 -9999 -9999 -9999 -9999 -9999 -9999 -9999 -9999 -9999 -9999 -9999 -9999 -9999 -9999 -9999 -9999 -9999 -9999 -9999 -9999 -9999 -9999 -9999 -9999 -9999 -9999 -9999 -9999 -9999 -9999 -9999 -9999 -9999 -9999 -9999 -9999 -9999 -9999 -9999 -9999 -9999 -9999 -9999 -9999 -9999 -9999 -9999 -9999 -9999 -9999 -9999 -9999 -9999 -9999 -9999 -9999 -9999 -9999 -9999
